# .PCD v.7 - Point Cloud Data file format
VERSION .7
FIELDS x y z rgb
SIZE 4 4 4 4
TYPE F F F F
WIDTH 1867
HEIGHT 1
POINTS 1867
DATA ascii
3.42 0.62 1.82 9.1477e-41
3.41 0.62 1.55 9.1477e-41
3.41 0.62 1.37 9.1477e-41
3.41 0.62 1.07 9.1477e-41
3.44 0.62 1.04 9.1477e-41
3.46 0.62 0.89 9.1477e-41
1.45 0.93 3.21 9.1477e-41
1.49 0.93 3.2 9.1477e-41
1.53 0.93 3.2 9.1477e-41
1.56 0.93 3.18 9.1477e-41
1.61 0.93 3.19 9.1477e-41
1.64 0.93 3.18 9.1477e-41
1.69 0.93 3.19 9.1477e-41
1.73 0.93 3.18 9.1477e-41
1.76 0.93 3.17 9.1477e-41
1.8 0.93 3.18 9.1477e-41
1.84 0.93 3.17 9.1477e-41
1.88 0.93 3.17 9.1477e-41
1.91 0.93 3.16 9.1477e-41
1.95 0.93 3.17 9.1477e-41
1.99 0.93 3.16 9.1477e-41
2.02 0.93 3.16 9.1477e-41
2.06 0.93 3.16 9.1477e-41
2.09 0.93 3.16 9.1477e-41
2.12 0.93 3.15 9.1477e-41
2.16 0.93 3.15 9.1477e-41
2.19 0.93 3.14 9.1477e-41
2.23 0.93 3.15 9.1477e-41
2.26 0.93 3.15 9.1477e-41
2.29 0.93 3.15 9.1477e-41
2.32 0.93 3.14 9.1477e-41
2.36 0.93 3.14 9.1477e-41
2.39 0.93 3.15 9.1477e-41
2.42 0.93 3.15 9.1477e-41
2.46 0.93 3.15 9.1477e-41
2.48 0.93 3.14 9.1477e-41
2.51 0.93 3.14 9.1477e-41
2.54 0.93 3.14 9.1477e-41
2.58 0.93 3.15 9.1477e-41
2.6 0.93 3.14 9.1477e-41
2.64 0.93 3.15 9.1477e-41
2.66 0.93 3.14 9.1477e-41
2.69 0.93 3.14 9.1477e-41
2.72 0.93 3.14 9.1477e-41
2.75 0.93 3.14 9.1477e-41
2.77 0.93 3.14 9.1477e-41
2.8 0.93 3.14 9.1477e-41
2.84 0.93 3.15 9.1477e-41
2.86 0.93 3.15 9.1477e-41
2.89 0.93 3.14 9.1477e-41
2.92 0.93 3.16 9.1477e-41
2.94 0.93 3.14 9.1477e-41
2.97 0.93 3.14 9.1477e-41
2.99 0.93 3.14 9.1477e-41
3.02 0.93 3.14 9.1477e-41
3.05 0.93 3.14 9.1477e-41
3.08 0.93 3.16 9.1477e-41
3.11 0.93 3.16 9.1477e-41
3.13 0.93 3.16 9.1477e-41
3.16 0.93 3.16 9.1477e-41
3.19 0.93 3.18 9.1477e-41
3.2 0.93 3.15 9.1477e-41
3.22 0.93 3.14 9.1477e-41
3.22 0.93 3.07 9.1477e-41
3.23 0.93 3 9.1477e-41
3.22 0.93 2.89 9.1477e-41
3.2 0.93 2.76 9.1477e-41
3.23 0.93 2.75 9.1477e-41
3.25 0.93 2.74 9.1477e-41
3.29 0.93 2.76 9.1477e-41
3.31 0.93 2.74 9.1477e-41
3.34 0.93 2.75 9.1477e-41
3.35 0.93 2.69 9.1477e-41
3.37 0.93 2.64 9.1477e-41
3.38 0.93 2.56 9.1477e-41
3.24 0.93 1.8 9.1477e-41
3.29 0.93 1.91 9.1477e-41
3.34 0.93 1.94 9.1477e-41
3.36 0.93 1.92 9.1477e-41
3.4 0.93 1.91 9.1477e-41
3.42 0.93 1.82 9.1477e-41
3.41 0.93 1.59 9.1477e-41
3.43 0.93 1.46 9.1477e-41
3.44 0.93 1.31 9.1477e-41
3.48 0.93 1.28 9.1477e-41
3.45 0.93 0.77 9.1477e-41
1.43 1.24 3.36 9.1477e-41
1.47 1.24 3.35 9.1477e-41
1.52 1.24 3.35 9.1477e-41
1.56 1.24 3.35 9.1477e-41
1.6 1.24 3.35 9.1477e-41
1.64 1.24 3.35 9.1477e-41
1.68 1.24 3.34 9.1477e-41
1.73 1.24 3.35 9.1477e-41
1.76 1.24 3.34 9.1477e-41
1.8 1.24 3.34 9.1477e-41
1.84 1.24 3.34 9.1477e-41
1.88 1.24 3.34 9.1477e-41
1.91 1.24 3.33 9.1477e-41
1.96 1.24 3.35 9.1477e-41
1.99 1.24 3.34 9.1477e-41
2.03 1.24 3.34 9.1477e-41
2.05 1.24 3.33 9.1477e-41
2.1 1.24 3.34 9.1477e-41
2.13 1.24 3.33 9.1477e-41
2.16 1.24 3.33 9.1477e-41
2.19 1.24 3.33 9.1477e-41
2.23 1.24 3.33 9.1477e-41
2.26 1.24 3.33 9.1477e-41
2.29 1.24 3.33 9.1477e-41
2.33 1.24 3.33 9.1477e-41
2.36 1.24 3.33 9.1477e-41
2.38 1.24 3.32 9.1477e-41
2.42 1.24 3.33 9.1477e-41
2.45 1.24 3.32 9.1477e-41
2.48 1.24 3.33 9.1477e-41
2.51 1.24 3.32 9.1477e-41
2.54 1.24 3.32 9.1477e-41
2.57 1.24 3.33 9.1477e-41
2.6 1.24 3.32 9.1477e-41
2.62 1.24 3.32 9.1477e-41
2.65 1.24 3.32 9.1477e-41
2.68 1.24 3.32 9.1477e-41
2.71 1.24 3.32 9.1477e-41
2.74 1.24 3.32 9.1477e-41
2.77 1.24 3.33 9.1477e-41
2.79 1.24 3.31 9.1477e-41
2.82 1.24 3.32 9.1477e-41
2.84 1.24 3.32 9.1477e-41
2.87 1.24 3.32 9.1477e-41
2.89 1.24 3.31 9.1477e-41
2.92 1.24 3.31 9.1477e-41
2.95 1.24 3.32 9.1477e-41
2.97 1.24 3.31 9.1477e-41
2.99 1.24 3.31 9.1477e-41
3.02 1.24 3.31 9.1477e-41
3.04 1.24 3.31 9.1477e-41
3.07 1.24 3.31 9.1477e-41
3.09 1.24 3.31 9.1477e-41
3.12 1.24 3.31 9.1477e-41
3.14 1.24 3.31 9.1477e-41
3.16 1.24 3.3 9.1477e-41
3.19 1.24 3.31 9.1477e-41
3.21 1.24 3.31 9.1477e-41
3.23 1.24 3.3 9.1477e-41
3.25 1.24 3.28 9.1477e-41
3.26 1.24 3.25 9.1477e-41
3.26 1.24 3.17 9.1477e-41
3.26 1.24 3.1 9.1477e-41
3.24 1.24 2.96 9.1477e-41
3.21 1.24 2.77 9.1477e-41
3.23 1.24 2.77 9.1477e-41
3.26 1.24 2.76 9.1477e-41
3.29 1.24 2.76 9.1477e-41
3.31 1.24 2.76 9.1477e-41
3.34 1.24 2.74 9.1477e-41
3.35 1.24 2.7 9.1477e-41
3.37 1.24 2.65 9.1477e-41
3.38 1.24 2.6 9.1477e-41
3.37 1.24 2.42 9.1477e-41
3.38 1.24 2.31 9.1477e-41
3.39 1.24 2.19 9.1477e-41
3.39 1.24 2.05 9.1477e-41
3.4 1.24 1.93 9.1477e-41
3.41 1.24 1.81 9.1477e-41
3.41 1.24 1.57 9.1477e-41
3.42 1.24 1.39 9.1477e-41
3.45 1.24 1.34 9.1477e-41
3.48 1.24 1.3 9.1477e-41
3.45 1.24 0.76 9.1477e-41
3.46 1.24 0.47 9.1477e-41
1.32 1.55 2.8 9.1477e-41
1.38 1.55 2.82 9.1477e-41
1.42 1.55 2.81 9.1477e-41
1.47 1.55 2.81 9.1477e-41
1.52 1.55 2.81 9.1477e-41
1.57 1.55 2.82 9.1477e-41
1.61 1.55 2.81 9.1477e-41
1.65 1.55 2.82 9.1477e-41
1.71 1.55 2.83 9.1477e-41
1.75 1.55 2.83 9.1477e-41
1.8 1.55 2.84 9.1477e-41
1.82 1.55 2.82 9.1477e-41
1.87 1.55 2.82 9.1477e-41
1.9 1.55 2.82 9.1477e-41
1.93 1.55 2.81 9.1477e-41
1.98 1.55 2.82 9.1477e-41
2.02 1.55 2.82 9.1477e-41
2.06 1.55 2.82 9.1477e-41
2.09 1.55 2.81 9.1477e-41
2.13 1.55 2.82 9.1477e-41
2.16 1.55 2.81 9.1477e-41
2.2 1.55 2.81 9.1477e-41
2.23 1.55 2.81 9.1477e-41
2.27 1.55 2.82 9.1477e-41
2.3 1.55 2.81 9.1477e-41
2.34 1.55 2.81 9.1477e-41
2.37 1.55 2.8 9.1477e-41
2.4 1.55 2.81 9.1477e-41
2.44 1.55 2.8 9.1477e-41
2.47 1.55 2.79 9.1477e-41
2.5 1.55 2.81 9.1477e-41
2.53 1.55 2.8 9.1477e-41
2.57 1.55 2.81 9.1477e-41
2.6 1.55 2.81 9.1477e-41
2.63 1.55 2.81 9.1477e-41
2.67 1.55 2.81 9.1477e-41
2.7 1.55 2.81 9.1477e-41
2.72 1.55 2.8 9.1477e-41
2.75 1.55 2.79 9.1477e-41
2.79 1.55 2.81 9.1477e-41
2.82 1.55 2.81 9.1477e-41
2.85 1.55 2.81 9.1477e-41
2.88 1.55 2.8 9.1477e-41
2.9 1.55 2.79 9.1477e-41
2.93 1.55 2.79 9.1477e-41
2.96 1.55 2.79 9.1477e-41
2.98 1.55 2.78 9.1477e-41
3.02 1.55 2.79 9.1477e-41
3.04 1.55 2.79 9.1477e-41
3.07 1.55 2.79 9.1477e-41
3.1 1.55 2.78 9.1477e-41
3.13 1.55 2.78 9.1477e-41
3.16 1.55 2.78 9.1477e-41
3.18 1.55 2.78 9.1477e-41
3.21 1.55 2.78 9.1477e-41
3.23 1.55 2.77 9.1477e-41
3.26 1.55 2.77 9.1477e-41
3.29 1.55 2.76 9.1477e-41
3.31 1.55 2.76 9.1477e-41
3.34 1.55 2.74 9.1477e-41
3.35 1.55 2.7 9.1477e-41
3.37 1.55 2.65 9.1477e-41
3.38 1.55 2.6 9.1477e-41
3.37 1.55 2.42 9.1477e-41
3.38 1.55 2.3 9.1477e-41
3.39 1.55 2.2 9.1477e-41
3.39 1.55 2.05 9.1477e-41
3.4 1.55 1.92 9.1477e-41
3.42 1.55 1.82 9.1477e-41
3.4 1.55 1.54 9.1477e-41
3.41 1.55 1.37 9.1477e-41
3.43 1.55 1.23 9.1477e-41
3.47 1.55 1.2 9.1477e-41
3.48 1.55 1.04 9.1477e-41
1.32 1.86 2.8 9.1477e-41
1.38 1.86 2.82 9.1477e-41
1.43 1.86 2.82 9.1477e-41
1.47 1.86 2.81 9.1477e-41
1.53 1.86 2.82 9.1477e-41
1.57 1.86 2.82 9.1477e-41
1.62 1.86 2.82 9.1477e-41
1.66 1.86 2.82 9.1477e-41
1.7 1.86 2.82 9.1477e-41
1.74 1.86 2.82 9.1477e-41
1.78 1.86 2.82 9.1477e-41
1.82 1.86 2.81 9.1477e-41
1.87 1.86 2.82 9.1477e-41
1.9 1.86 2.82 9.1477e-41
1.94 1.86 2.82 9.1477e-41
1.98 1.86 2.82 9.1477e-41
2.01 1.86 2.81 9.1477e-41
2.06 1.86 2.83 9.1477e-41
2.09 1.86 2.82 9.1477e-41
2.14 1.86 2.82 9.1477e-41
2.17 1.86 2.81 9.1477e-41
2.2 1.86 2.81 9.1477e-41
2.23 1.86 2.81 9.1477e-41
2.27 1.86 2.82 9.1477e-41
2.31 1.86 2.82 9.1477e-41
2.34 1.86 2.81 9.1477e-41
2.37 1.86 2.81 9.1477e-41
2.41 1.86 2.81 9.1477e-41
2.45 1.86 2.82 9.1477e-41
2.47 1.86 2.81 9.1477e-41
2.51 1.86 2.81 9.1477e-41
2.54 1.86 2.81 9.1477e-41
2.57 1.86 2.81 9.1477e-41
2.6 1.86 2.81 9.1477e-41
2.64 1.86 2.81 9.1477e-41
2.66 1.86 2.8 9.1477e-41
2.7 1.86 2.81 9.1477e-41
2.73 1.86 2.8 9.1477e-41
2.75 1.86 2.79 9.1477e-41
2.79 1.86 2.81 9.1477e-41
2.81 1.86 2.8 9.1477e-41
2.85 1.86 2.8 9.1477e-41
2.87 1.86 2.79 9.1477e-41
2.9 1.86 2.8 9.1477e-41
2.93 1.86 2.79 9.1477e-41
2.96 1.86 2.79 9.1477e-41
2.99 1.86 2.8 9.1477e-41
3.02 1.86 2.79 9.1477e-41
3.04 1.86 2.79 9.1477e-41
3.07 1.86 2.78 9.1477e-41
3.1 1.86 2.79 9.1477e-41
3.13 1.86 2.78 9.1477e-41
3.16 1.86 2.78 9.1477e-41
3.18 1.86 2.79 9.1477e-41
3.21 1.86 2.78 9.1477e-41
3.23 1.86 2.77 9.1477e-41
3.26 1.86 2.77 9.1477e-41
3.29 1.86 2.77 9.1477e-41
3.32 1.86 2.77 9.1477e-41
3.34 1.86 2.74 9.1477e-41
3.35 1.86 2.7 9.1477e-41
3.37 1.86 2.64 9.1477e-41
3.38 1.86 2.6 9.1477e-41
3.39 1.86 2.47 9.1477e-41
3.39 1.86 2.38 9.1477e-41
3.4 1.86 2.26 9.1477e-41
3.41 1.86 2.13 9.1477e-41
3.42 1.86 2.01 9.1477e-41
3.42 1.86 1.86 9.1477e-41
3.39 1.86 1.43 9.1477e-41
3.41 1.86 1.37 9.1477e-41
3.36 1.86 1.37 3.57e-43
3.47 1.86 1.2 9.1477e-41
1.12 2.17 3.35 9.1477e-41
1.14 2.17 3.33 9.1477e-41
1.17 2.17 3.31 9.1477e-41
1.18 2.17 3.27 9.1477e-41
1.22 2.17 3.26 9.1477e-41
1.24 2.17 3.23 9.1477e-41
1.23 2.17 3.18 9.1477e-41
1.21 2.17 3.12 9.1477e-41
1.2 2.17 3.07 9.1477e-41
1.19 2.17 3.01 9.1477e-41
1.16 2.17 2.94 9.1477e-41
1.18 2.17 2.91 9.1477e-41
1.2 2.17 2.91 3.57e-43
1.46 2.17 2.91 3.57e-43
1.82 2.17 3.27 9.1477e-41
1.87 2.17 3.29 9.1477e-41
1.91 2.17 3.29 9.1477e-41
1.89 2.17 3.23 9.1477e-41
1.91 2.17 3.21 9.1477e-41
1.92 2.17 3.18 9.1477e-41
1.93 2.17 3.14 9.1477e-41
1.94 2.17 3.1 9.1477e-41
1.93 2.17 3.05 9.1477e-41
1.93 2.17 3 9.1477e-41
1.93 2.17 2.96 9.1477e-41
1.93 2.17 2.91 9.1477e-41
1.93 2.17 2.85 9.1477e-41
1.93 2.17 2.8 9.1477e-41
1.93 2.17 2.75 9.1477e-41
1.94 2.17 2.71 9.1477e-41
1.95 2.17 2.66 9.1477e-41
1.94 2.17 2.59 9.1477e-41
1.94 2.17 2.54 9.1477e-41
1.94 2.17 2.48 9.1477e-41
1.93 2.17 2.41 9.1477e-41
1.93 2.17 2.35 9.1477e-41
1.91 2.17 2.25 9.1477e-41
1.91 2.17 2.17 9.1477e-41
1.88 2.17 2.06 9.1477e-41
1.89 2.17 2 9.1477e-41
1.9 2.17 1.94 9.1477e-41
1.88 2.17 1.83 9.1477e-41
2.7 2.17 3.2 9.1477e-41
2.69 2.17 3.15 9.1477e-41
2.7 2.17 3.1 9.1477e-41
2.7 2.17 3.04 9.1477e-41
2.69 2.17 2.98 9.1477e-41
2.7 2.17 2.93 9.1477e-41
2.7 2.17 2.88 9.1477e-41
2.7 2.17 2.82 9.1477e-41
2.7 2.17 2.75 9.1477e-41
2.7 2.17 2.69 9.1477e-41
2.71 2.17 2.64 9.1477e-41
2.72 2.17 2.6 9.1477e-41
2.74 2.17 2.57 9.1477e-41
2.78 2.17 2.57 9.1477e-41
2.81 2.17 2.56 9.1477e-41
2.84 2.17 2.57 9.1477e-41
2.87 2.17 2.58 9.1477e-41
2.91 2.17 2.58 9.1477e-41
2.94 2.17 2.57 9.1477e-41
2.98 2.17 2.62 9.1477e-41
3 2.17 2.58 9.1477e-41
3.02 2.17 2.56 9.1477e-41
3.05 2.17 2.55 9.1477e-41
2.65 2.17 1.24 9.1477e-41
2.69 2.17 1.21 9.1477e-41
3.17 2.17 2.64 9.1477e-41
3.19 2.17 2.64 9.1477e-41
3.22 2.17 2.64 9.1477e-41
3.25 2.17 2.63 9.1477e-41
3.28 2.17 2.63 9.1477e-41
3.31 2.17 2.64 9.1477e-41
3.34 2.17 2.65 9.1477e-41
3.37 2.17 2.66 9.1477e-41
3.4 2.17 2.68 9.1477e-41
3.43 2.17 2.66 9.1477e-41
3.38 2.17 2.66 3.57e-43
3.4 2.17 2.26 9.1477e-41
3.37 2.17 1.94 9.1477e-41
3.23 2.17 1.01 9.1477e-41
3.26 2.17 1.01 3.57e-43
3.39 2.17 1.43 9.1477e-41
3.44 2.17 1.43 3.57e-43
3.36 2.17 0.78 9.1477e-41
1.06 2.48 2.18 9.1477e-41
1.06 2.48 2.12 9.1477e-41
1.05 2.48 2.05 9.1477e-41
1.05 2.48 1.99 9.1477e-41
1.06 2.48 1.92 9.1477e-41
1.06 2.48 1.86 9.1477e-41
1.05 2.48 1.77 9.1477e-41
1.05 2.48 1.71 9.1477e-41
1.05 2.48 1.63 9.1477e-41
1.04 2.48 1.55 9.1477e-41
1.04 2.48 1.47 9.1477e-41
1.05 2.48 1.4 9.1477e-41
1.1 2.48 1.39 9.1477e-41
1.16 2.48 1.4 9.1477e-41
1.2 2.48 1.39 9.1477e-41
1.26 2.48 1.39 9.1477e-41
1.31 2.48 1.39 9.1477e-41
1.37 2.48 1.39 9.1477e-41
1.41 2.48 1.38 9.1477e-41
1.47 2.48 1.39 9.1477e-41
1.52 2.48 1.39 9.1477e-41
1.57 2.48 1.38 9.1477e-41
1.62 2.48 1.39 9.1477e-41
1.67 2.48 1.38 9.1477e-41
1.71 2.48 1.38 9.1477e-41
1.76 2.48 1.38 9.1477e-41
1.81 2.48 1.38 9.1477e-41
1.86 2.48 1.37 9.1477e-41
1.91 2.48 1.39 9.1477e-41
1.95 2.48 1.37 9.1477e-41
2 2.48 1.38 9.1477e-41
2.05 2.48 1.38 9.1477e-41
2.09 2.48 1.38 9.1477e-41
2.13 2.48 1.37 9.1477e-41
2.18 2.48 1.36 9.1477e-41
2.22 2.48 1.37 9.1477e-41
2.27 2.48 1.38 9.1477e-41
2.31 2.48 1.37 9.1477e-41
2.36 2.48 1.37 9.1477e-41
2.4 2.48 1.38 9.1477e-41
2.44 2.48 1.37 9.1477e-41
2.48 2.48 1.37 9.1477e-41
2.53 2.48 1.37 9.1477e-41
2.57 2.48 1.37 9.1477e-41
2.61 2.48 1.36 9.1477e-41
2.65 2.48 1.36 9.1477e-41
2.7 2.48 1.38 9.1477e-41
2.74 2.48 1.36 9.1477e-41
2.78 2.48 1.37 9.1477e-41
2.82 2.48 1.36 9.1477e-41
2.86 2.48 1.36 9.1477e-41
2.9 2.48 1.37 9.1477e-41
2.94 2.48 1.37 9.1477e-41
2.98 2.48 1.36 9.1477e-41
3.02 2.48 1.36 9.1477e-41
3.06 2.48 1.36 9.1477e-41
3.1 2.48 1.37 9.1477e-41
3.14 2.48 1.35 9.1477e-41
3.18 2.48 1.36 9.1477e-41
3.22 2.48 1.35 9.1477e-41
3.26 2.48 1.36 9.1477e-41
3.29 2.48 1.36 9.1477e-41
3.46 2.48 2.07 9.1477e-41
3.5 2.48 2.07 3.57e-43
3.44 2.48 1.57 9.1477e-41
3.48 2.48 1.59 9.1477e-41
1.06 2.79 2.19 9.1477e-41
1.06 2.79 2.12 9.1477e-41
1.05 2.79 2.05 9.1477e-41
1.05 2.79 1.99 9.1477e-41
1.05 2.79 1.91 9.1477e-41
1.05 2.79 1.85 9.1477e-41
1.05 2.79 1.77 9.1477e-41
1.05 2.79 1.7 9.1477e-41
1.04 2.79 1.63 9.1477e-41
1.04 2.79 1.54 9.1477e-41
1.04 2.79 1.48 9.1477e-41
1.05 2.79 1.4 9.1477e-41
1.1 2.79 1.4 9.1477e-41
1.15 2.79 1.39 9.1477e-41
1.2 2.79 1.39 9.1477e-41
1.26 2.79 1.4 9.1477e-41
1.31 2.79 1.38 9.1477e-41
1.37 2.79 1.39 9.1477e-41
1.42 2.79 1.39 9.1477e-41
1.47 2.79 1.39 9.1477e-41
1.52 2.79 1.39 9.1477e-41
1.57 2.79 1.38 9.1477e-41
1.62 2.79 1.39 9.1477e-41
1.66 2.79 1.38 9.1477e-41
1.71 2.79 1.38 9.1477e-41
1.76 2.79 1.38 9.1477e-41
1.81 2.79 1.38 9.1477e-41
1.86 2.79 1.39 9.1477e-41
1.9 2.79 1.37 9.1477e-41
1.95 2.79 1.38 9.1477e-41
2 2.79 1.37 9.1477e-41
2.05 2.79 1.38 9.1477e-41
2.09 2.79 1.38 9.1477e-41
2.13 2.79 1.37 9.1477e-41
2.19 2.79 1.39 9.1477e-41
2.22 2.79 1.36 9.1477e-41
2.27 2.79 1.38 9.1477e-41
2.32 2.79 1.38 9.1477e-41
2.36 2.79 1.37 9.1477e-41
2.4 2.79 1.38 9.1477e-41
2.44 2.79 1.37 9.1477e-41
2.49 2.79 1.38 9.1477e-41
2.53 2.79 1.36 9.1477e-41
2.57 2.79 1.38 9.1477e-41
2.61 2.79 1.37 9.1477e-41
2.65 2.79 1.37 9.1477e-41
2.7 2.79 1.38 9.1477e-41
2.74 2.79 1.36 9.1477e-41
2.78 2.79 1.37 9.1477e-41
2.82 2.79 1.37 9.1477e-41
2.86 2.79 1.36 9.1477e-41
2.9 2.79 1.37 9.1477e-41
2.94 2.79 1.36 9.1477e-41
2.98 2.79 1.36 9.1477e-41
3.02 2.79 1.37 9.1477e-41
3.06 2.79 1.37 9.1477e-41
3.1 2.79 1.36 9.1477e-41
3.14 2.79 1.37 9.1477e-41
3.18 2.79 1.36 9.1477e-41
3.22 2.79 1.35 9.1477e-41
3.26 2.79 1.37 9.1477e-41
3.29 2.79 1.36 9.1477e-41
3.46 2.79 2.08 9.1477e-41
3.5 2.79 2.08 3.57e-43
3.44 2.79 1.57 9.1477e-41
3.48 2.79 1.57 9.1477e-41
1.06 3.1 2.18 9.1477e-41
1.06 3.1 2.12 9.1477e-41
1.05 3.1 2.05 9.1477e-41
1.05 3.1 1.99 9.1477e-41
1.05 3.1 1.91 9.1477e-41
1.04 3.1 1.84 9.1477e-41
1.05 3.1 1.77 9.1477e-41
1.05 3.1 1.7 9.1477e-41
1.04 3.1 1.62 9.1477e-41
1.04 3.1 1.54 9.1477e-41
1.04 3.1 1.47 9.1477e-41
1.05 3.1 1.4 9.1477e-41
1.1 3.1 1.39 9.1477e-41
1.16 3.1 1.4 9.1477e-41
1.21 3.1 1.4 9.1477e-41
1.26 3.1 1.4 9.1477e-41
1.31 3.1 1.39 9.1477e-41
1.37 3.1 1.39 9.1477e-41
1.42 3.1 1.39 9.1477e-41
1.47 3.1 1.39 9.1477e-41
1.52 3.1 1.4 9.1477e-41
1.57 3.1 1.38 9.1477e-41
1.62 3.1 1.39 9.1477e-41
1.67 3.1 1.38 9.1477e-41
1.72 3.1 1.39 9.1477e-41
1.77 3.1 1.39 9.1477e-41
1.81 3.1 1.38 9.1477e-41
1.86 3.1 1.38 9.1477e-41
1.9 3.1 1.37 9.1477e-41
1.96 3.1 1.39 9.1477e-41
2 3.1 1.38 9.1477e-41
2.05 3.1 1.39 9.1477e-41
2.1 3.1 1.39 9.1477e-41
2.14 3.1 1.38 9.1477e-41
2.18 3.1 1.38 9.1477e-41
2.22 3.1 1.37 9.1477e-41
2.27 3.1 1.38 9.1477e-41
2.32 3.1 1.38 9.1477e-41
2.36 3.1 1.38 9.1477e-41
2.4 3.1 1.38 9.1477e-41
2.44 3.1 1.37 9.1477e-41
2.48 3.1 1.37 9.1477e-41
2.53 3.1 1.37 9.1477e-41
2.57 3.1 1.38 9.1477e-41
2.61 3.1 1.37 9.1477e-41
2.66 3.1 1.38 9.1477e-41
2.7 3.1 1.38 9.1477e-41
2.74 3.1 1.37 9.1477e-41
2.78 3.1 1.37 9.1477e-41
2.82 3.1 1.37 9.1477e-41
2.86 3.1 1.37 9.1477e-41
2.9 3.1 1.37 9.1477e-41
2.94 3.1 1.37 9.1477e-41
2.98 3.1 1.37 9.1477e-41
3.02 3.1 1.37 9.1477e-41
3.06 3.1 1.36 9.1477e-41
3.1 3.1 1.37 9.1477e-41
3.14 3.1 1.36 9.1477e-41
3.18 3.1 1.37 9.1477e-41
3.22 3.1 1.36 9.1477e-41
3.26 3.1 1.36 9.1477e-41
3.3 3.1 1.38 9.1477e-41
3.46 3.1 2.07 9.1477e-41
3.51 3.1 2.07 3.57e-43
3.44 3.1 1.57 9.1477e-41
3.48 3.1 1.58 9.1477e-41
3.51 3.1 1.54 9.1477e-41
1.06 3.41 2.18 9.1477e-41
1.06 3.41 2.12 9.1477e-41
1.05 3.41 2.04 9.1477e-41
1.05 3.41 1.98 9.1477e-41
1.04 3.41 1.91 9.1477e-41
1.04 3.41 1.84 9.1477e-41
1.05 3.41 1.77 9.1477e-41
1.04 3.41 1.69 9.1477e-41
1.03 3.41 1.61 9.1477e-41
1.04 3.41 1.54 9.1477e-41
1.03 3.41 1.46 9.1477e-41
1.05 3.41 1.4 9.1477e-41
1.1 3.41 1.4 9.1477e-41
1.16 3.41 1.4 9.1477e-41
1.21 3.41 1.4 9.1477e-41
1.25 3.41 1.38 9.1477e-41
1.31 3.41 1.39 9.1477e-41
1.37 3.41 1.39 9.1477e-41
1.41 3.41 1.38 9.1477e-41
1.47 3.41 1.39 9.1477e-41
1.52 3.41 1.39 9.1477e-41
1.57 3.41 1.39 9.1477e-41
1.62 3.41 1.39 9.1477e-41
1.67 3.41 1.38 9.1477e-41
1.71 3.41 1.38 9.1477e-41
1.77 3.41 1.39 9.1477e-41
1.81 3.41 1.38 9.1477e-41
1.86 3.41 1.39 9.1477e-41
1.91 3.41 1.38 9.1477e-41
1.96 3.41 1.39 9.1477e-41
2 3.41 1.38 9.1477e-41
2.05 3.41 1.38 9.1477e-41
2.09 3.41 1.38 9.1477e-41
2.14 3.41 1.38 9.1477e-41
2.18 3.41 1.38 9.1477e-41
2.22 3.41 1.37 9.1477e-41
2.27 3.41 1.38 9.1477e-41
2.32 3.41 1.38 9.1477e-41
2.36 3.41 1.38 9.1477e-41
2.4 3.41 1.38 9.1477e-41
2.45 3.41 1.38 9.1477e-41
2.48 3.41 1.37 9.1477e-41
2.53 3.41 1.37 9.1477e-41
2.57 3.41 1.37 9.1477e-41
2.62 3.41 1.38 9.1477e-41
2.65 3.41 1.37 9.1477e-41
2.7 3.41 1.37 9.1477e-41
2.74 3.41 1.36 9.1477e-41
2.78 3.41 1.37 9.1477e-41
2.82 3.41 1.37 9.1477e-41
2.86 3.41 1.37 9.1477e-41
2.9 3.41 1.37 9.1477e-41
2.94 3.41 1.37 9.1477e-41
2.98 3.41 1.37 9.1477e-41
3.02 3.41 1.37 9.1477e-41
3.06 3.41 1.37 9.1477e-41
3.1 3.41 1.36 9.1477e-41
3.14 3.41 1.37 9.1477e-41
3.18 3.41 1.36 9.1477e-41
3.22 3.41 1.36 9.1477e-41
3.26 3.41 1.38 9.1477e-41
3.3 3.41 1.37 9.1477e-41
3.46 3.41 2.09 9.1477e-41
3.51 3.41 2.09 3.57e-43
3.44 3.41 1.57 9.1477e-41
3.48 3.41 1.57 9.1477e-41
1.06 3.72 2.18 9.1477e-41
1.05 3.72 2.11 9.1477e-41
1.04 3.72 2.04 9.1477e-41
1.05 3.72 1.98 9.1477e-41
1.04 3.72 1.91 9.1477e-41
1.04 3.72 1.83 9.1477e-41
1.04 3.72 1.77 9.1477e-41
1.03 3.72 1.68 9.1477e-41
1.03 3.72 1.61 9.1477e-41
1.03 3.72 1.54 9.1477e-41
1.03 3.72 1.46 9.1477e-41
1.05 3.72 1.4 9.1477e-41
1.1 3.72 1.4 9.1477e-41
1.15 3.72 1.39 9.1477e-41
1.2 3.72 1.39 9.1477e-41
1.26 3.72 1.4 9.1477e-41
1.32 3.72 1.4 9.1477e-41
1.37 3.72 1.39 9.1477e-41
1.42 3.72 1.4 9.1477e-41
1.47 3.72 1.39 9.1477e-41
1.52 3.72 1.39 9.1477e-41
1.57 3.72 1.38 9.1477e-41
1.62 3.72 1.39 9.1477e-41
1.67 3.72 1.38 9.1477e-41
1.72 3.72 1.39 9.1477e-41
1.76 3.72 1.38 9.1477e-41
1.81 3.72 1.38 9.1477e-41
1.86 3.72 1.38 9.1477e-41
1.91 3.72 1.39 9.1477e-41
1.96 3.72 1.39 9.1477e-41
2 3.72 1.39 9.1477e-41
2.05 3.72 1.38 9.1477e-41
2.09 3.72 1.38 9.1477e-41
2.14 3.72 1.38 9.1477e-41
2.18 3.72 1.37 9.1477e-41
2.22 3.72 1.37 9.1477e-41
2.27 3.72 1.38 9.1477e-41
2.32 3.72 1.38 9.1477e-41
2.36 3.72 1.37 9.1477e-41
2.4 3.72 1.38 9.1477e-41
2.44 3.72 1.37 9.1477e-41
2.49 3.72 1.38 9.1477e-41
2.53 3.72 1.37 9.1477e-41
2.57 3.72 1.38 9.1477e-41
2.61 3.72 1.37 9.1477e-41
2.65 3.72 1.37 9.1477e-41
2.7 3.72 1.38 9.1477e-41
2.74 3.72 1.37 9.1477e-41
2.78 3.72 1.37 9.1477e-41
2.82 3.72 1.37 9.1477e-41
2.86 3.72 1.37 9.1477e-41
2.9 3.72 1.37 9.1477e-41
2.94 3.72 1.38 9.1477e-41
2.98 3.72 1.37 9.1477e-41
3.02 3.72 1.37 9.1477e-41
3.06 3.72 1.37 9.1477e-41
3.1 3.72 1.37 9.1477e-41
3.14 3.72 1.37 9.1477e-41
3.18 3.72 1.37 9.1477e-41
3.22 3.72 1.36 9.1477e-41
3.26 3.72 1.37 9.1477e-41
3.3 3.72 1.37 9.1477e-41
3.46 3.72 2.09 9.1477e-41
3.51 3.72 2.09 3.57e-43
3.44 3.72 1.57 9.1477e-41
3.48 3.72 1.58 9.1477e-41
1.04 4.03 2.17 9.1477e-41
1.04 4.03 2.1 9.1477e-41
1.05 4.03 2.04 9.1477e-41
1.05 4.03 1.98 9.1477e-41
1.04 4.03 1.9 9.1477e-41
1.04 4.03 1.83 9.1477e-41
1.04 4.03 1.77 9.1477e-41
1.03 4.03 1.68 9.1477e-41
1.03 4.03 1.6 9.1477e-41
1.03 4.03 1.54 9.1477e-41
1.03 4.03 1.45 9.1477e-41
1.04 4.03 1.39 9.1477e-41
1.1 4.03 1.4 9.1477e-41
1.15 4.03 1.39 9.1477e-41
1.2 4.03 1.39 9.1477e-41
1.26 4.03 1.4 9.1477e-41
1.31 4.03 1.39 9.1477e-41
1.37 4.03 1.39 9.1477e-41
1.42 4.03 1.39 9.1477e-41
1.47 4.03 1.39 9.1477e-41
1.52 4.03 1.4 9.1477e-41
1.57 4.03 1.39 9.1477e-41
1.63 4.03 1.4 9.1477e-41
1.67 4.03 1.38 9.1477e-41
1.72 4.03 1.39 9.1477e-41
1.77 4.03 1.39 9.1477e-41
1.81 4.03 1.38 9.1477e-41
1.86 4.03 1.39 9.1477e-41
1.91 4.03 1.39 9.1477e-41
1.96 4.03 1.39 9.1477e-41
2 4.03 1.38 9.1477e-41
2.05 4.03 1.39 9.1477e-41
2.1 4.03 1.39 9.1477e-41
2.14 4.03 1.39 9.1477e-41
2.18 4.03 1.38 9.1477e-41
2.23 4.03 1.38 9.1477e-41
2.27 4.03 1.39 9.1477e-41
2.32 4.03 1.38 9.1477e-41
2.36 4.03 1.38 9.1477e-41
2.4 4.03 1.38 9.1477e-41
2.45 4.03 1.38 9.1477e-41
2.49 4.03 1.38 9.1477e-41
2.53 4.03 1.37 9.1477e-41
2.57 4.03 1.38 9.1477e-41
2.61 4.03 1.37 9.1477e-41
2.66 4.03 1.39 9.1477e-41
2.7 4.03 1.38 9.1477e-41
2.74 4.03 1.37 9.1477e-41
2.78 4.03 1.37 9.1477e-41
2.82 4.03 1.38 9.1477e-41
2.86 4.03 1.37 9.1477e-41
2.9 4.03 1.37 9.1477e-41
2.94 4.03 1.38 9.1477e-41
2.98 4.03 1.37 9.1477e-41
3.02 4.03 1.37 9.1477e-41
3.06 4.03 1.37 9.1477e-41
3.1 4.03 1.38 9.1477e-41
3.14 4.03 1.36 9.1477e-41
3.18 4.03 1.37 9.1477e-41
3.22 4.03 1.37 9.1477e-41
3.26 4.03 1.38 9.1477e-41
3.3 4.03 1.38 9.1477e-41
3.46 4.03 2.1 9.1477e-41
3.51 4.03 2.1 3.57e-43
3.44 4.03 1.57 9.1477e-41
3.48 4.03 1.58 9.1477e-41
1.05 4.34 2.17 9.1477e-41
1.04 4.34 2.1 9.1477e-41
1.04 4.34 2.04 9.1477e-41
1.04 4.34 1.97 9.1477e-41
1.04 4.34 1.91 9.1477e-41
1.04 4.34 1.84 9.1477e-41
1.04 4.34 1.76 9.1477e-41
1.03 4.34 1.68 9.1477e-41
1.03 4.34 1.61 9.1477e-41
1.04 4.34 1.54 9.1477e-41
1.03 4.34 1.45 9.1477e-41
1.05 4.34 1.4 9.1477e-41
1.1 4.34 1.4 9.1477e-41
1.16 4.34 1.4 9.1477e-41
1.21 4.34 1.4 9.1477e-41
1.26 4.34 1.39 9.1477e-41
1.32 4.34 1.4 9.1477e-41
1.37 4.34 1.4 9.1477e-41
1.42 4.34 1.39 9.1477e-41
1.47 4.34 1.39 9.1477e-41
1.52 4.34 1.39 9.1477e-41
1.57 4.34 1.39 9.1477e-41
1.63 4.34 1.4 9.1477e-41
1.67 4.34 1.39 9.1477e-41
1.72 4.34 1.39 9.1477e-41
1.77 4.34 1.39 9.1477e-41
1.82 4.34 1.39 9.1477e-41
1.86 4.34 1.38 9.1477e-41
1.91 4.34 1.39 9.1477e-41
1.96 4.34 1.39 9.1477e-41
2 4.34 1.39 9.1477e-41
2.05 4.34 1.38 9.1477e-41
2.1 4.34 1.4 9.1477e-41
2.14 4.34 1.39 9.1477e-41
2.19 4.34 1.39 9.1477e-41
2.24 4.34 1.4 9.1477e-41
2.27 4.34 1.38 9.1477e-41
2.32 4.34 1.39 9.1477e-41
2.36 4.34 1.37 9.1477e-41
2.41 4.34 1.39 9.1477e-41
2.45 4.34 1.38 9.1477e-41
2.49 4.34 1.39 9.1477e-41
2.54 4.34 1.39 9.1477e-41
2.57 4.34 1.38 9.1477e-41
2.62 4.34 1.39 9.1477e-41
2.66 4.34 1.38 9.1477e-41
2.7 4.34 1.39 9.1477e-41
2.74 4.34 1.38 9.1477e-41
2.78 4.34 1.37 9.1477e-41
2.82 4.34 1.38 9.1477e-41
2.86 4.34 1.38 9.1477e-41
2.91 4.34 1.39 9.1477e-41
2.94 4.34 1.38 9.1477e-41
2.98 4.34 1.38 9.1477e-41
3.02 4.34 1.38 9.1477e-41
3.07 4.34 1.39 9.1477e-41
3.1 4.34 1.38 9.1477e-41
3.14 4.34 1.38 9.1477e-41
3.18 4.34 1.37 9.1477e-41
3.22 4.34 1.37 9.1477e-41
3.26 4.34 1.39 9.1477e-41
3.3 4.34 1.38 9.1477e-41
3.47 4.34 2.11 9.1477e-41
3.51 4.34 2.16 9.1477e-41
3.49 4.34 1.88 9.1477e-41
3.48 4.34 1.57 9.1477e-41
3.5 4.34 1.42 9.1477e-41
1.04 4.65 2.17 9.1477e-41
1.04 4.65 2.1 9.1477e-41
1.04 4.65 2.03 9.1477e-41
1.04 4.65 1.97 9.1477e-41
1.04 4.65 1.91 9.1477e-41
1.04 4.65 1.83 9.1477e-41
1.04 4.65 1.76 9.1477e-41
1.03 4.65 1.68 9.1477e-41
1.03 4.65 1.61 9.1477e-41
1.03 4.65 1.53 9.1477e-41
1.03 4.65 1.45 9.1477e-41
1.05 4.65 1.4 9.1477e-41
1.11 4.65 1.41 9.1477e-41
1.16 4.65 1.4 9.1477e-41
1.21 4.65 1.4 9.1477e-41
1.26 4.65 1.39 9.1477e-41
1.32 4.65 1.4 9.1477e-41
1.37 4.65 1.4 9.1477e-41
1.42 4.65 1.4 9.1477e-41
1.47 4.65 1.39 9.1477e-41
1.52 4.65 1.4 9.1477e-41
1.58 4.65 1.4 9.1477e-41
1.63 4.65 1.4 9.1477e-41
1.67 4.65 1.38 9.1477e-41
1.72 4.65 1.39 9.1477e-41
1.77 4.65 1.39 9.1477e-41
1.82 4.65 1.39 9.1477e-41
1.86 4.65 1.39 9.1477e-41
1.91 4.65 1.39 9.1477e-41
1.96 4.65 1.39 9.1477e-41
2.01 4.65 1.4 9.1477e-41
2.05 4.65 1.38 9.1477e-41
2.09 4.65 1.38 9.1477e-41
2.15 4.65 1.4 9.1477e-41
2.19 4.65 1.39 9.1477e-41
2.23 4.65 1.38 9.1477e-41
2.27 4.65 1.39 9.1477e-41
2.32 4.65 1.39 9.1477e-41
2.36 4.65 1.38 9.1477e-41
2.41 4.65 1.39 9.1477e-41
2.45 4.65 1.38 9.1477e-41
2.49 4.65 1.38 9.1477e-41
2.54 4.65 1.39 9.1477e-41
2.57 4.65 1.38 9.1477e-41
2.62 4.65 1.38 9.1477e-41
2.66 4.65 1.38 9.1477e-41
2.7 4.65 1.39 9.1477e-41
2.74 4.65 1.37 9.1477e-41
2.78 4.65 1.38 9.1477e-41
2.82 4.65 1.38 9.1477e-41
2.86 4.65 1.37 9.1477e-41
2.9 4.65 1.38 9.1477e-41
2.94 4.65 1.38 9.1477e-41
2.98 4.65 1.38 9.1477e-41
3.02 4.65 1.38 9.1477e-41
3.06 4.65 1.38 9.1477e-41
3.1 4.65 1.38 9.1477e-41
3.14 4.65 1.38 9.1477e-41
3.18 4.65 1.37 9.1477e-41
3.22 4.65 1.37 9.1477e-41
3.26 4.65 1.38 9.1477e-41
3.3 4.65 1.38 9.1477e-41
3.46 4.65 2.1 9.1477e-41
3.51 4.65 2.15 9.1477e-41
3.49 4.65 1.85 9.1477e-41
3.49 4.65 1.6 9.1477e-41
1.04 4.96 2.17 9.1477e-41
1.04 4.96 2.1 9.1477e-41
1.04 4.96 2.03 9.1477e-41
1.04 4.96 1.97 9.1477e-41
1.04 4.96 1.9 9.1477e-41
1.03 4.96 1.82 9.1477e-41
1.04 4.96 1.76 9.1477e-41
1.03 4.96 1.68 9.1477e-41
1.03 4.96 1.6 9.1477e-41
1.03 4.96 1.53 9.1477e-41
1.03 4.96 1.45 9.1477e-41
1.05 4.96 1.4 9.1477e-41
1.1 4.96 1.4 9.1477e-41
1.16 4.96 1.4 9.1477e-41
1.21 4.96 1.4 9.1477e-41
1.26 4.96 1.4 9.1477e-41
1.31 4.96 1.39 9.1477e-41
1.37 4.96 1.39 9.1477e-41
1.42 4.96 1.39 9.1477e-41
1.47 4.96 1.39 9.1477e-41
1.52 4.96 1.39 9.1477e-41
1.57 4.96 1.39 9.1477e-41
1.63 4.96 1.4 9.1477e-41
1.67 4.96 1.39 9.1477e-41
1.72 4.96 1.4 9.1477e-41
1.77 4.96 1.39 9.1477e-41
1.82 4.96 1.39 9.1477e-41
1.87 4.96 1.4 9.1477e-41
1.91 4.96 1.39 9.1477e-41
1.96 4.96 1.4 9.1477e-41
2.01 4.96 1.4 9.1477e-41
2.05 4.96 1.38 9.1477e-41
2.1 4.96 1.39 9.1477e-41
2.14 4.96 1.39 9.1477e-41
2.19 4.96 1.39 9.1477e-41
2.23 4.96 1.39 9.1477e-41
2.28 4.96 1.39 9.1477e-41
2.32 4.96 1.38 9.1477e-41
2.36 4.96 1.38 9.1477e-41
2.41 4.96 1.39 9.1477e-41
2.45 4.96 1.38 9.1477e-41
2.49 4.96 1.39 9.1477e-41
2.54 4.96 1.39 9.1477e-41
2.57 4.96 1.38 9.1477e-41
2.61 4.96 1.37 9.1477e-41
2.66 4.96 1.38 9.1477e-41
2.7 4.96 1.39 9.1477e-41
2.74 4.96 1.38 9.1477e-41
2.78 4.96 1.38 9.1477e-41
2.82 4.96 1.38 9.1477e-41
2.86 4.96 1.38 9.1477e-41
2.9 4.96 1.37 9.1477e-41
2.94 4.96 1.38 9.1477e-41
2.99 4.96 1.39 9.1477e-41
3.02 4.96 1.38 9.1477e-41
3.06 4.96 1.38 9.1477e-41
3.1 4.96 1.37 9.1477e-41
3.14 4.96 1.38 9.1477e-41
3.18 4.96 1.37 9.1477e-41
3.22 4.96 1.38 9.1477e-41
3.26 4.96 1.38 9.1477e-41
3.3 4.96 1.38 9.1477e-41
3.47 4.96 2.11 9.1477e-41
3.51 4.96 2.15 9.1477e-41
3.48 4.96 1.82 9.1477e-41
3.48 4.96 1.57 9.1477e-41
1.04 5.27 2.16 9.1477e-41
1.04 5.27 2.09 9.1477e-41
1.04 5.27 2.04 9.1477e-41
1.04 5.27 1.96 9.1477e-41
1.03 5.27 1.89 9.1477e-41
1.03 5.27 1.82 9.1477e-41
1.03 5.27 1.75 9.1477e-41
1.03 5.27 1.68 9.1477e-41
1.03 5.27 1.6 9.1477e-41
1.02 5.27 1.52 9.1477e-41
1.02 5.27 1.44 9.1477e-41
1.05 5.27 1.41 9.1477e-41
1.11 5.27 1.41 9.1477e-41
1.16 5.27 1.41 9.1477e-41
1.21 5.27 1.4 9.1477e-41
1.26 5.27 1.4 9.1477e-41
1.32 5.27 1.4 9.1477e-41
1.37 5.27 1.4 9.1477e-41
1.42 5.27 1.4 9.1477e-41
1.48 5.27 1.4 9.1477e-41
1.52 5.27 1.39 9.1477e-41
1.58 5.27 1.4 9.1477e-41
1.63 5.27 1.4 9.1477e-41
1.67 5.27 1.38 9.1477e-41
1.72 5.27 1.4 9.1477e-41
1.77 5.27 1.4 9.1477e-41
1.81 5.27 1.38 9.1477e-41
1.86 5.27 1.39 9.1477e-41
1.91 5.27 1.39 9.1477e-41
1.96 5.27 1.39 9.1477e-41
2 5.27 1.39 9.1477e-41
2.05 5.27 1.4 9.1477e-41
2.1 5.27 1.4 9.1477e-41
2.14 5.27 1.39 9.1477e-41
2.18 5.27 1.38 9.1477e-41
2.23 5.27 1.38 9.1477e-41
2.27 5.27 1.39 9.1477e-41
2.32 5.27 1.39 9.1477e-41
2.36 5.27 1.38 9.1477e-41
2.41 5.27 1.39 9.1477e-41
2.45 5.27 1.39 9.1477e-41
2.49 5.27 1.39 9.1477e-41
2.53 5.27 1.38 9.1477e-41
2.57 5.27 1.38 9.1477e-41
2.62 5.27 1.38 9.1477e-41
2.66 5.27 1.39 9.1477e-41
2.7 5.27 1.38 9.1477e-41
2.74 5.27 1.38 9.1477e-41
2.78 5.27 1.38 9.1477e-41
2.82 5.27 1.38 9.1477e-41
2.87 5.27 1.39 9.1477e-41
2.9 5.27 1.38 9.1477e-41
2.94 5.27 1.38 9.1477e-41
2.98 5.27 1.38 9.1477e-41
3.03 5.27 1.39 9.1477e-41
3.07 5.27 1.39 9.1477e-41
3.1 5.27 1.38 9.1477e-41
3.14 5.27 1.38 9.1477e-41
3.18 5.27 1.38 9.1477e-41
3.22 5.27 1.38 9.1477e-41
3.26 5.27 1.39 9.1477e-41
3.29 5.27 1.33 9.1477e-41
3.47 5.27 2.13 9.1477e-41
3.5 5.27 2.13 9.1477e-41
3.47 5.27 1.71 9.1477e-41
3.48 5.27 1.57 9.1477e-41
1.03 5.58 2.15 9.1477e-41
1.04 5.58 2.09 9.1477e-41
1.03 5.58 2.02 9.1477e-41
1.04 5.58 1.96 9.1477e-41
1.03 5.58 1.89 9.1477e-41
1.03 5.58 1.82 9.1477e-41
1.02 5.58 1.74 9.1477e-41
1.02 5.58 1.67 9.1477e-41
1.02 5.58 1.59 9.1477e-41
1.02 5.58 1.52 9.1477e-41
1.02 5.58 1.44 9.1477e-41
1.05 5.58 1.4 9.1477e-41
1.11 5.58 1.41 9.1477e-41
1.16 5.58 1.41 9.1477e-41
1.21 5.58 1.4 9.1477e-41
1.27 5.58 1.41 9.1477e-41
1.32 5.58 1.41 9.1477e-41
1.37 5.58 1.39 9.1477e-41
1.42 5.58 1.4 9.1477e-41
1.48 5.58 1.4 9.1477e-41
1.52 5.58 1.4 9.1477e-41
1.57 5.58 1.38 9.1477e-41
1.63 5.58 1.4 9.1477e-41
1.67 5.58 1.39 9.1477e-41
1.72 5.58 1.39 9.1477e-41
1.77 5.58 1.4 9.1477e-41
1.82 5.58 1.39 9.1477e-41
1.86 5.58 1.39 9.1477e-41
1.92 5.58 1.4 9.1477e-41
1.96 5.58 1.4 9.1477e-41
2 5.58 1.39 9.1477e-41
2.05 5.58 1.4 9.1477e-41
2.1 5.58 1.39 9.1477e-41
2.15 5.58 1.4 9.1477e-41
2.19 5.58 1.39 9.1477e-41
2.23 5.58 1.38 9.1477e-41
2.27 5.58 1.39 9.1477e-41
2.32 5.58 1.4 9.1477e-41
2.36 5.58 1.39 9.1477e-41
2.41 5.58 1.39 9.1477e-41
2.45 5.58 1.38 9.1477e-41
2.49 5.58 1.39 9.1477e-41
2.54 5.58 1.39 9.1477e-41
2.58 5.58 1.39 9.1477e-41
2.62 5.58 1.38 9.1477e-41
2.66 5.58 1.39 9.1477e-41
2.7 5.58 1.38 9.1477e-41
2.74 5.58 1.39 9.1477e-41
2.78 5.58 1.38 9.1477e-41
2.83 5.58 1.39 9.1477e-41
2.87 5.58 1.39 9.1477e-41
2.9 5.58 1.38 9.1477e-41
2.95 5.58 1.39 9.1477e-41
2.99 5.58 1.39 9.1477e-41
3.03 5.58 1.39 9.1477e-41
3.07 5.58 1.39 9.1477e-41
3.11 5.58 1.39 9.1477e-41
3.14 5.58 1.38 9.1477e-41
3.18 5.58 1.39 9.1477e-41
3.22 5.58 1.38 9.1477e-41
3.26 5.58 1.39 9.1477e-41
3.29 5.58 1.34 9.1477e-41
3.47 5.58 2.13 9.1477e-41
3.5 5.58 2.1 9.1477e-41
3.46 5.58 1.69 9.1477e-41
3.48 5.58 1.58 9.1477e-41
1.04 5.89 2.16 9.1477e-41
1.04 5.89 2.09 9.1477e-41
1.03 5.89 2.02 9.1477e-41
1.04 5.89 1.96 9.1477e-41
1.03 5.89 1.89 9.1477e-41
1.03 5.89 1.82 9.1477e-41
1.03 5.89 1.75 9.1477e-41
1.02 5.89 1.67 9.1477e-41
1.02 5.89 1.59 9.1477e-41
1.01 5.89 1.51 9.1477e-41
1.02 5.89 1.44 9.1477e-41
1.05 5.89 1.41 9.1477e-41
1.11 5.89 1.41 9.1477e-41
1.16 5.89 1.41 9.1477e-41
1.22 5.89 1.41 9.1477e-41
1.27 5.89 1.41 9.1477e-41
1.32 5.89 1.41 9.1477e-41
1.37 5.89 1.4 9.1477e-41
1.42 5.89 1.4 9.1477e-41
1.47 5.89 1.39 9.1477e-41
1.52 5.89 1.4 9.1477e-41
1.57 5.89 1.39 9.1477e-41
1.63 5.89 1.41 9.1477e-41
1.67 5.89 1.39 9.1477e-41
1.72 5.89 1.4 9.1477e-41
1.77 5.89 1.4 9.1477e-41
1.82 5.89 1.39 9.1477e-41
1.86 5.89 1.39 9.1477e-41
1.92 5.89 1.4 9.1477e-41
1.96 5.89 1.39 9.1477e-41
2 5.89 1.39 9.1477e-41
2.05 5.89 1.4 9.1477e-41
2.1 5.89 1.4 9.1477e-41
2.14 5.89 1.39 9.1477e-41
2.19 5.89 1.39 9.1477e-41
2.23 5.89 1.39 9.1477e-41
2.28 5.89 1.39 9.1477e-41
2.32 5.89 1.39 9.1477e-41
2.36 5.89 1.39 9.1477e-41
2.41 5.89 1.4 9.1477e-41
2.45 5.89 1.39 9.1477e-41
2.49 5.89 1.39 9.1477e-41
2.54 5.89 1.39 9.1477e-41
2.58 5.89 1.39 9.1477e-41
2.62 5.89 1.39 9.1477e-41
2.66 5.89 1.4 9.1477e-41
2.7 5.89 1.4 9.1477e-41
2.74 5.89 1.38 9.1477e-41
2.79 5.89 1.39 9.1477e-41
2.83 5.89 1.39 9.1477e-41
2.86 5.89 1.38 9.1477e-41
2.91 5.89 1.4 9.1477e-41
2.95 5.89 1.4 9.1477e-41
2.99 5.89 1.39 9.1477e-41
3.03 5.89 1.39 9.1477e-41
3.07 5.89 1.39 9.1477e-41
3.11 5.89 1.4 9.1477e-41
3.14 5.89 1.39 9.1477e-41
3.19 5.89 1.4 9.1477e-41
3.22 5.89 1.39 9.1477e-41
3.26 5.89 1.4 9.1477e-41
3.42 5.89 2.05 9.1477e-41
3.48 5.89 2.16 9.1477e-41
3.49 5.89 2.05 9.1477e-41
3.46 5.89 1.69 9.1477e-41
3.48 5.89 1.58 9.1477e-41
3.48 5.89 1.29 9.1477e-41
1.04 6.2 2.16 9.1477e-41
1.03 6.2 2.09 9.1477e-41
1.04 6.2 2.03 9.1477e-41
1.03 6.2 1.96 9.1477e-41
1.02 6.2 1.88 9.1477e-41
1.03 6.2 1.82 9.1477e-41
1.03 6.2 1.75 9.1477e-41
1.03 6.2 1.68 9.1477e-41
1.02 6.2 1.59 9.1477e-41
1.02 6.2 1.52 9.1477e-41
1.02 6.2 1.44 9.1477e-41
1.05 6.2 1.4 9.1477e-41
1.11 6.2 1.41 9.1477e-41
1.16 6.2 1.41 9.1477e-41
1.21 6.2 1.4 9.1477e-41
1.27 6.2 1.41 9.1477e-41
1.32 6.2 1.41 9.1477e-41
1.38 6.2 1.41 9.1477e-41
1.42 6.2 1.4 9.1477e-41
1.48 6.2 1.4 9.1477e-41
1.53 6.2 1.41 9.1477e-41
1.57 6.2 1.39 9.1477e-41
1.63 6.2 1.41 9.1477e-41
1.67 6.2 1.39 9.1477e-41
1.72 6.2 1.4 9.1477e-41
1.78 6.2 1.4 9.1477e-41
1.82 6.2 1.39 9.1477e-41
1.87 6.2 1.4 9.1477e-41
1.92 6.2 1.41 9.1477e-41
1.96 6.2 1.4 9.1477e-41
2 6.2 1.39 9.1477e-41
2.05 6.2 1.4 9.1477e-41
2.1 6.2 1.4 9.1477e-41
2.15 6.2 1.4 9.1477e-41
2.19 6.2 1.39 9.1477e-41
2.24 6.2 1.4 9.1477e-41
2.28 6.2 1.39 9.1477e-41
2.32 6.2 1.38 9.1477e-41
2.37 6.2 1.4 9.1477e-41
2.41 6.2 1.4 9.1477e-41
2.45 6.2 1.39 9.1477e-41
2.49 6.2 1.39 9.1477e-41
2.54 6.2 1.39 9.1477e-41
2.58 6.2 1.4 9.1477e-41
2.62 6.2 1.39 9.1477e-41
2.66 6.2 1.4 9.1477e-41
2.7 6.2 1.4 9.1477e-41
2.74 6.2 1.39 9.1477e-41
2.79 6.2 1.4 9.1477e-41
2.83 6.2 1.4 9.1477e-41
2.87 6.2 1.39 9.1477e-41
2.91 6.2 1.4 9.1477e-41
2.95 6.2 1.4 9.1477e-41
2.99 6.2 1.4 9.1477e-41
3.03 6.2 1.4 9.1477e-41
3.07 6.2 1.39 9.1477e-41
3.11 6.2 1.4 9.1477e-41
3.14 6.2 1.39 9.1477e-41
3.18 6.2 1.39 9.1477e-41
3.23 6.2 1.4 9.1477e-41
3.26 6.2 1.39 9.1477e-41
3.43 6.2 2.08 9.1477e-41
3.48 6.2 2.18 9.1477e-41
3.48 6.2 2.03 9.1477e-41
3.46 6.2 1.66 9.1477e-41
3.48 6.2 1.66 3.57e-43
3.48 6.2 1.29 9.1477e-41
3.47 6.2 0.92 9.1477e-41
3.49 6.2 0.71 9.1477e-41
1.03 6.51 2.15 9.1477e-41
1.03 6.51 2.09 9.1477e-41
1.04 6.51 2.03 9.1477e-41
1.03 6.51 1.96 9.1477e-41
1.02 6.51 1.88 9.1477e-41
1.03 6.51 1.82 9.1477e-41
1.02 6.51 1.74 9.1477e-41
1.02 6.51 1.67 9.1477e-41
1.03 6.51 1.6 9.1477e-41
1.02 6.51 1.52 9.1477e-41
1.02 6.51 1.44 9.1477e-41
1.05 6.51 1.41 9.1477e-41
1.11 6.51 1.41 9.1477e-41
1.16 6.51 1.41 9.1477e-41
1.22 6.51 1.41 9.1477e-41
1.27 6.51 1.41 9.1477e-41
1.32 6.51 1.41 9.1477e-41
1.38 6.51 1.41 9.1477e-41
1.42 6.51 1.4 9.1477e-41
1.48 6.51 1.41 9.1477e-41
1.53 6.51 1.41 9.1477e-41
1.58 6.51 1.41 9.1477e-41
1.63 6.51 1.4 9.1477e-41
1.68 6.51 1.4 9.1477e-41
1.72 6.51 1.4 9.1477e-41
1.77 6.51 1.4 9.1477e-41
1.82 6.51 1.4 9.1477e-41
1.86 6.51 1.39 9.1477e-41
1.92 6.51 1.4 9.1477e-41
1.96 6.51 1.4 9.1477e-41
2.01 6.51 1.4 9.1477e-41
2.05 6.51 1.4 9.1477e-41
2.1 6.51 1.4 9.1477e-41
2.15 6.51 1.4 9.1477e-41
2.19 6.51 1.39 9.1477e-41
2.23 6.51 1.39 9.1477e-41
2.28 6.51 1.39 9.1477e-41
2.32 6.51 1.4 9.1477e-41
2.36 6.51 1.39 9.1477e-41
2.41 6.51 1.4 9.1477e-41
2.45 6.51 1.39 9.1477e-41
2.49 6.51 1.39 9.1477e-41
2.53 6.51 1.38 9.1477e-41
2.58 6.51 1.4 9.1477e-41
2.62 6.51 1.39 9.1477e-41
2.66 6.51 1.39 9.1477e-41
2.7 6.51 1.4 9.1477e-41
2.74 6.51 1.37 9.1477e-41
2.79 6.51 1.39 9.1477e-41
2.83 6.51 1.39 9.1477e-41
2.87 6.51 1.4 9.1477e-41
2.91 6.51 1.39 9.1477e-41
2.95 6.51 1.41 9.1477e-41
2.99 6.51 1.4 9.1477e-41
3.03 6.51 1.4 9.1477e-41
3.07 6.51 1.41 9.1477e-41
3.11 6.51 1.4 9.1477e-41
3.14 6.51 1.39 9.1477e-41
3.18 6.51 1.39 9.1477e-41
3.22 6.51 1.39 9.1477e-41
3.26 6.51 1.4 9.1477e-41
3.43 6.51 2.1 9.1477e-41
3.48 6.51 2.19 9.1477e-41
3.48 6.51 2.02 9.1477e-41
3.46 6.51 1.65 9.1477e-41
3.48 6.51 1.57 9.1477e-41
3.47 6.51 1.22 9.1477e-41
1.01 6.82 2.18 9.1477e-41
1.01 6.82 2.13 9.1477e-41
1.01 6.82 2.06 9.1477e-41
1.01 6.82 2 9.1477e-41
1.01 6.82 1.93 9.1477e-41
1.01 6.82 1.87 9.1477e-41
1.01 6.82 1.8 9.1477e-41
1.01 6.82 1.73 9.1477e-41
1.01 6.82 1.65 9.1477e-41
1.01 6.82 1.59 9.1477e-41
1.01 6.82 1.51 9.1477e-41
1.01 6.82 1.43 9.1477e-41
1.05 6.82 1.41 9.1477e-41
1.11 6.82 1.42 9.1477e-41
1.16 6.82 1.41 9.1477e-41
1.22 6.82 1.41 9.1477e-41
1.26 6.82 1.4 9.1477e-41
1.33 6.82 1.41 9.1477e-41
1.38 6.82 1.41 9.1477e-41
1.43 6.82 1.41 9.1477e-41
1.48 6.82 1.4 9.1477e-41
1.52 6.82 1.4 9.1477e-41
1.58 6.82 1.4 9.1477e-41
1.63 6.82 1.4 9.1477e-41
1.67 6.82 1.39 9.1477e-41
1.72 6.82 1.4 9.1477e-41
1.77 6.82 1.4 9.1477e-41
1.82 6.82 1.4 9.1477e-41
1.87 6.82 1.4 9.1477e-41
1.92 6.82 1.4 9.1477e-41
1.96 6.82 1.4 9.1477e-41
2.01 6.82 1.41 9.1477e-41
2.05 6.82 1.4 9.1477e-41
2.1 6.82 1.41 9.1477e-41
2.15 6.82 1.41 9.1477e-41
2.19 6.82 1.4 9.1477e-41
2.23 6.82 1.39 9.1477e-41
2.28 6.82 1.39 9.1477e-41
2.32 6.82 1.4 9.1477e-41
2.36 6.82 1.39 9.1477e-41
2.41 6.82 1.4 9.1477e-41
2.45 6.82 1.4 9.1477e-41
2.49 6.82 1.39 9.1477e-41
2.54 6.82 1.39 9.1477e-41
2.58 6.82 1.4 9.1477e-41
2.62 6.82 1.4 9.1477e-41
2.66 6.82 1.39 9.1477e-41
2.7 6.82 1.4 9.1477e-41
2.74 6.82 1.39 9.1477e-41
2.79 6.82 1.4 9.1477e-41
2.83 6.82 1.39 9.1477e-41
2.87 6.82 1.41 9.1477e-41
2.91 6.82 1.4 9.1477e-41
2.95 6.82 1.4 9.1477e-41
2.99 6.82 1.4 9.1477e-41
3.03 6.82 1.4 9.1477e-41
3.07 6.82 1.41 9.1477e-41
3.11 6.82 1.41 9.1477e-41
3.15 6.82 1.4 9.1477e-41
3.19 6.82 1.4 9.1477e-41
3.23 6.82 1.4 9.1477e-41
3.26 6.82 1.4 9.1477e-41
3.43 6.82 2.07 9.1477e-41
3.48 6.82 2.19 9.1477e-41
3.48 6.82 2 9.1477e-41
3.48 6.82 1.78 9.1477e-41
3.48 6.82 1.58 9.1477e-41
3.48 6.82 1.28 9.1477e-41
3.47 6.82 0.9 9.1477e-41
3.48 6.82 0.7 9.1477e-41
1.01 7.13 2.19 9.1477e-41
1.01 7.13 2.13 9.1477e-41
1.01 7.13 2.06 9.1477e-41
1.01 7.13 2 9.1477e-41
1.01 7.13 1.93 9.1477e-41
1.02 7.13 1.87 9.1477e-41
1.01 7.13 1.79 9.1477e-41
1 7.13 1.72 9.1477e-41
1.01 7.13 1.65 9.1477e-41
1.01 7.13 1.58 9.1477e-41
1.01 7.13 1.5 9.1477e-41
1.01 7.13 1.43 9.1477e-41
1.05 7.13 1.41 9.1477e-41
1.11 7.13 1.42 9.1477e-41
1.16 7.13 1.41 9.1477e-41
1.22 7.13 1.41 9.1477e-41
1.27 7.13 1.41 9.1477e-41
1.32 7.13 1.41 9.1477e-41
1.38 7.13 1.41 9.1477e-41
1.43 7.13 1.41 9.1477e-41
1.48 7.13 1.4 9.1477e-41
1.52 7.13 1.4 9.1477e-41
1.58 7.13 1.4 9.1477e-41
1.63 7.13 1.4 9.1477e-41
1.68 7.13 1.4 9.1477e-41
1.73 7.13 1.41 9.1477e-41
1.77 7.13 1.4 9.1477e-41
1.82 7.13 1.4 9.1477e-41
1.87 7.13 1.4 9.1477e-41
1.92 7.13 1.41 9.1477e-41
1.96 7.13 1.4 9.1477e-41
2.01 7.13 1.4 9.1477e-41
2.06 7.13 1.41 9.1477e-41
2.1 7.13 1.41 9.1477e-41
2.15 7.13 1.4 9.1477e-41
2.19 7.13 1.4 9.1477e-41
2.24 7.13 1.4 9.1477e-41
2.28 7.13 1.4 9.1477e-41
2.32 7.13 1.4 9.1477e-41
2.37 7.13 1.4 9.1477e-41
2.41 7.13 1.4 9.1477e-41
2.45 7.13 1.4 9.1477e-41
2.49 7.13 1.39 9.1477e-41
2.54 7.13 1.4 9.1477e-41
2.58 7.13 1.4 9.1477e-41
2.62 7.13 1.39 9.1477e-41
2.67 7.13 1.41 9.1477e-41
2.71 7.13 1.4 9.1477e-41
2.75 7.13 1.4 9.1477e-41
2.79 7.13 1.4 9.1477e-41
2.83 7.13 1.4 9.1477e-41
2.87 7.13 1.4 9.1477e-41
2.91 7.13 1.4 9.1477e-41
2.95 7.13 1.41 9.1477e-41
2.99 7.13 1.4 9.1477e-41
3.03 7.13 1.4 9.1477e-41
3.07 7.13 1.41 9.1477e-41
3.11 7.13 1.4 9.1477e-41
3.15 7.13 1.41 9.1477e-41
3.19 7.13 1.41 9.1477e-41
3.23 7.13 1.4 9.1477e-41
3.27 7.13 1.41 9.1477e-41
3.44 7.13 2.12 9.1477e-41
3.48 7.13 2.2 9.1477e-41
3.47 7.13 1.97 9.1477e-41
3.47 7.13 1.7 9.1477e-41
3.48 7.13 1.58 9.1477e-41
1.01 7.44 2.19 9.1477e-41
1.02 7.44 2.14 9.1477e-41
1.01 7.44 2.06 9.1477e-41
1.02 7.44 2.01 9.1477e-41
1.01 7.44 1.93 9.1477e-41
1.01 7.44 1.87 9.1477e-41
1.01 7.44 1.8 9.1477e-41
1 7.44 1.72 9.1477e-41
1.01 7.44 1.65 9.1477e-41
1.01 7.44 1.58 9.1477e-41
1.01 7.44 1.5 9.1477e-41
1.01 7.44 1.43 9.1477e-41
1.05 7.44 1.41 9.1477e-41
1.11 7.44 1.42 9.1477e-41
1.16 7.44 1.41 9.1477e-41
1.22 7.44 1.41 9.1477e-41
1.27 7.44 1.41 9.1477e-41
1.33 7.44 1.41 9.1477e-41
1.38 7.44 1.41 9.1477e-41
1.42 7.44 1.4 9.1477e-41
1.48 7.44 1.4 9.1477e-41
1.53 7.44 1.41 9.1477e-41
1.58 7.44 1.41 9.1477e-41
1.63 7.44 1.41 9.1477e-41
1.68 7.44 1.41 9.1477e-41
1.73 7.44 1.41 9.1477e-41
1.78 7.44 1.4 9.1477e-41
1.83 7.44 1.41 9.1477e-41
1.87 7.44 1.41 9.1477e-41
1.92 7.44 1.41 9.1477e-41
1.97 7.44 1.41 9.1477e-41
2.01 7.44 1.4 9.1477e-41
2.06 7.44 1.41 9.1477e-41
2.1 7.44 1.41 9.1477e-41
2.15 7.44 1.4 9.1477e-41
2.2 7.44 1.41 9.1477e-41
2.24 7.44 1.4 9.1477e-41
2.28 7.44 1.4 9.1477e-41
2.33 7.44 1.41 9.1477e-41
2.37 7.44 1.4 9.1477e-41
2.41 7.44 1.4 9.1477e-41
2.46 7.44 1.41 9.1477e-41
2.5 7.44 1.41 9.1477e-41
2.54 7.44 1.41 9.1477e-41
2.58 7.44 1.4 9.1477e-41
2.62 7.44 1.4 9.1477e-41
2.67 7.44 1.41 9.1477e-41
2.71 7.44 1.4 9.1477e-41
2.75 7.44 1.4 9.1477e-41
2.79 7.44 1.41 9.1477e-41
2.83 7.44 1.41 9.1477e-41
2.87 7.44 1.41 9.1477e-41
2.91 7.44 1.41 9.1477e-41
2.95 7.44 1.41 9.1477e-41
2.99 7.44 1.42 9.1477e-41
3.03 7.44 1.41 9.1477e-41
3.07 7.44 1.41 9.1477e-41
3.11 7.44 1.41 9.1477e-41
3.15 7.44 1.42 9.1477e-41
3.19 7.44 1.4 9.1477e-41
3.23 7.44 1.4 9.1477e-41
3.26 7.44 1.4 9.1477e-41
3.44 7.44 2.14 9.1477e-41
3.48 7.44 2.2 9.1477e-41
3.48 7.44 1.98 9.1477e-41
3.46 7.44 1.66 9.1477e-41
3.49 7.44 1.6 9.1477e-41
1.01 7.75 2.19 9.1477e-41
1.02 7.75 2.14 9.1477e-41
1.02 7.75 2.07 9.1477e-41
1.01 7.75 2 9.1477e-41
1.02 7.75 1.95 9.1477e-41
1.02 7.75 1.87 9.1477e-41
1.01 7.75 1.8 9.1477e-41
1.01 7.75 1.73 9.1477e-41
1.01 7.75 1.65 9.1477e-41
1.01 7.75 1.58 9.1477e-41
1.01 7.75 1.51 9.1477e-41
1.02 7.75 1.44 9.1477e-41
1.05 7.75 1.41 9.1477e-41
1.11 7.75 1.42 9.1477e-41
1.16 7.75 1.4 9.1477e-41
1.22 7.75 1.41 9.1477e-41
1.27 7.75 1.41 9.1477e-41
1.32 7.75 1.41 9.1477e-41
1.37 7.75 1.4 9.1477e-41
1.43 7.75 1.41 9.1477e-41
1.48 7.75 1.41 9.1477e-41
1.53 7.75 1.41 9.1477e-41
1.58 7.75 1.41 9.1477e-41
1.63 7.75 1.41 9.1477e-41
1.68 7.75 1.4 9.1477e-41
1.73 7.75 1.41 9.1477e-41
1.78 7.75 1.4 9.1477e-41
1.83 7.75 1.41 9.1477e-41
1.87 7.75 1.41 9.1477e-41
1.92 7.75 1.41 9.1477e-41
1.97 7.75 1.41 9.1477e-41
2.01 7.75 1.41 9.1477e-41
2.06 7.75 1.41 9.1477e-41
2.1 7.75 1.4 9.1477e-41
2.15 7.75 1.41 9.1477e-41
2.19 7.75 1.4 9.1477e-41
2.24 7.75 1.41 9.1477e-41
2.28 7.75 1.4 9.1477e-41
2.32 7.75 1.4 9.1477e-41
2.37 7.75 1.41 9.1477e-41
2.41 7.75 1.4 9.1477e-41
2.45 7.75 1.4 9.1477e-41
2.49 7.75 1.39 9.1477e-41
2.54 7.75 1.4 9.1477e-41
2.58 7.75 1.4 9.1477e-41
2.62 7.75 1.4 9.1477e-41
2.66 7.75 1.4 9.1477e-41
2.7 7.75 1.4 9.1477e-41
2.75 7.75 1.4 9.1477e-41
2.79 7.75 1.41 9.1477e-41
2.83 7.75 1.41 9.1477e-41
2.87 7.75 1.41 9.1477e-41
2.91 7.75 1.4 9.1477e-41
2.95 7.75 1.41 9.1477e-41
2.99 7.75 1.41 9.1477e-41
3.03 7.75 1.41 9.1477e-41
3.07 7.75 1.41 9.1477e-41
3.11 7.75 1.41 9.1477e-41
3.15 7.75 1.41 9.1477e-41
3.19 7.75 1.41 9.1477e-41
3.23 7.75 1.41 9.1477e-41
3.26 7.75 1.4 9.1477e-41
3.44 7.75 2.15 9.1477e-41
3.48 7.75 2.21 9.1477e-41
3.47 7.75 1.94 9.1477e-41
3.46 7.75 1.65 9.1477e-41
3.48 7.75 1.58 9.1477e-41
1.02 8.06 2.2 9.1477e-41
1.02 8.06 2.14 9.1477e-41
1.02 8.06 2.07 9.1477e-41
1.02 8.06 2.01 9.1477e-41
1.02 8.06 1.94 9.1477e-41
1.02 8.06 1.87 9.1477e-41
1.01 8.06 1.8 9.1477e-41
1 8.06 1.72 9.1477e-41
1 8.06 1.64 9.1477e-41
1.01 8.06 1.58 9.1477e-41
1.01 8.06 1.5 9.1477e-41
1.01 8.06 1.43 9.1477e-41
1.05 8.06 1.41 9.1477e-41
1.11 8.06 1.41 9.1477e-41
1.17 8.06 1.41 9.1477e-41
1.22 8.06 1.41 9.1477e-41
1.27 8.06 1.41 9.1477e-41
1.33 8.06 1.41 9.1477e-41
1.38 8.06 1.41 9.1477e-41
1.43 8.06 1.42 9.1477e-41
1.48 8.06 1.4 9.1477e-41
1.53 8.06 1.41 9.1477e-41
1.58 8.06 1.41 9.1477e-41
1.63 8.06 1.41 9.1477e-41
1.68 8.06 1.41 9.1477e-41
1.73 8.06 1.41 9.1477e-41
1.78 8.06 1.41 9.1477e-41
1.83 8.06 1.41 9.1477e-41
1.87 8.06 1.41 9.1477e-41
1.92 8.06 1.41 9.1477e-41
1.97 8.06 1.41 9.1477e-41
2.01 8.06 1.41 9.1477e-41
2.06 8.06 1.41 9.1477e-41
2.1 8.06 1.41 9.1477e-41
2.15 8.06 1.41 9.1477e-41
2.2 8.06 1.41 9.1477e-41
2.24 8.06 1.41 9.1477e-41
2.29 8.06 1.41 9.1477e-41
2.33 8.06 1.42 9.1477e-41
2.37 8.06 1.41 9.1477e-41
2.41 8.06 1.4 9.1477e-41
2.46 8.06 1.41 9.1477e-41
2.5 8.06 1.41 9.1477e-41
2.54 8.06 1.4 9.1477e-41
2.58 8.06 1.4 9.1477e-41
2.62 8.06 1.4 9.1477e-41
2.67 8.06 1.41 9.1477e-41
2.71 8.06 1.4 9.1477e-41
2.75 8.06 1.41 9.1477e-41
2.79 8.06 1.4 9.1477e-41
2.83 8.06 1.42 9.1477e-41
2.87 8.06 1.41 9.1477e-41
2.91 8.06 1.41 9.1477e-41
2.95 8.06 1.41 9.1477e-41
2.99 8.06 1.41 9.1477e-41
3.03 8.06 1.42 9.1477e-41
3.07 8.06 1.42 9.1477e-41
3.11 8.06 1.42 9.1477e-41
3.15 8.06 1.41 9.1477e-41
3.19 8.06 1.4 9.1477e-41
3.23 8.06 1.42 9.1477e-41
3.27 8.06 1.41 9.1477e-41
3.44 8.06 2.15 9.1477e-41
3.48 8.06 2.2 9.1477e-41
3.47 8.06 1.93 9.1477e-41
3.46 8.06 1.65 9.1477e-41
3.48 8.06 1.59 9.1477e-41
1.01 8.37 2.19 9.1477e-41
1.02 8.37 2.14 9.1477e-41
1.02 8.37 2.07 9.1477e-41
1.02 8.37 2.01 9.1477e-41
1.02 8.37 1.95 9.1477e-41
1.02 8.37 1.87 9.1477e-41
1.02 8.37 1.81 9.1477e-41
1.01 8.37 1.73 9.1477e-41
1.01 8.37 1.65 9.1477e-41
1.01 8.37 1.59 9.1477e-41
1.01 8.37 1.5 9.1477e-41
1.01 8.37 1.43 9.1477e-41
1.05 8.37 1.41 9.1477e-41
1.11 8.37 1.42 9.1477e-41
1.17 8.37 1.41 9.1477e-41
1.22 8.37 1.41 9.1477e-41
1.27 8.37 1.41 9.1477e-41
1.33 8.37 1.42 9.1477e-41
1.38 8.37 1.42 9.1477e-41
1.43 8.37 1.41 9.1477e-41
1.48 8.37 1.4 9.1477e-41
1.53 8.37 1.41 9.1477e-41
1.58 8.37 1.41 9.1477e-41
1.63 8.37 1.41 9.1477e-41
1.68 8.37 1.41 9.1477e-41
1.73 8.37 1.41 9.1477e-41
1.78 8.37 1.41 9.1477e-41
1.83 8.37 1.41 9.1477e-41
1.87 8.37 1.4 9.1477e-41
1.92 8.37 1.42 9.1477e-41
1.97 8.37 1.41 9.1477e-41
2.01 8.37 1.41 9.1477e-41
2.06 8.37 1.41 9.1477e-41
2.1 8.37 1.41 9.1477e-41
2.15 8.37 1.42 9.1477e-41
2.2 8.37 1.41 9.1477e-41
2.24 8.37 1.41 9.1477e-41
2.29 8.37 1.41 9.1477e-41
2.33 8.37 1.41 9.1477e-41
2.37 8.37 1.41 9.1477e-41
2.42 8.37 1.41 9.1477e-41
2.46 8.37 1.42 9.1477e-41
2.5 8.37 1.41 9.1477e-41
2.54 8.37 1.41 9.1477e-41
2.59 8.37 1.41 9.1477e-41
2.63 8.37 1.41 9.1477e-41
2.67 8.37 1.41 9.1477e-41
2.71 8.37 1.4 9.1477e-41
2.75 8.37 1.41 9.1477e-41
2.79 8.37 1.41 9.1477e-41
2.83 8.37 1.42 9.1477e-41
2.87 8.37 1.42 9.1477e-41
2.91 8.37 1.41 9.1477e-41
2.95 8.37 1.42 9.1477e-41
2.99 8.37 1.42 9.1477e-41
3.04 8.37 1.43 9.1477e-41
3.07 8.37 1.42 9.1477e-41
3.11 8.37 1.42 9.1477e-41
3.15 8.37 1.42 9.1477e-41
3.19 8.37 1.42 9.1477e-41
3.23 8.37 1.42 9.1477e-41
3.27 8.37 1.41 9.1477e-41
3.44 8.37 2.15 9.1477e-41
3.48 8.37 2.21 9.1477e-41
3.47 8.37 1.94 9.1477e-41
3.46 8.37 1.64 9.1477e-41
3.49 8.37 1.6 9.1477e-41
1.01 8.68 2.19 9.1477e-41
1.02 8.68 2.14 9.1477e-41
1.02 8.68 2.07 9.1477e-41
1.02 8.68 2.01 9.1477e-41
1.02 8.68 1.94 9.1477e-41
1.02 8.68 1.87 9.1477e-41
1.01 8.68 1.8 9.1477e-41
1.02 8.68 1.73 9.1477e-41
1.01 8.68 1.65 9.1477e-41
1.01 8.68 1.59 9.1477e-41
1.01 8.68 1.51 9.1477e-41
1.02 8.68 1.44 9.1477e-41
1.06 8.68 1.42 9.1477e-41
1.11 8.68 1.42 9.1477e-41
1.17 8.68 1.41 9.1477e-41
1.22 8.68 1.41 9.1477e-41
1.27 8.68 1.41 9.1477e-41
1.33 8.68 1.41 9.1477e-41
1.38 8.68 1.42 9.1477e-41
1.43 8.68 1.41 9.1477e-41
1.48 8.68 1.41 9.1477e-41
1.54 8.68 1.41 9.1477e-41
1.58 8.68 1.4 9.1477e-41
1.64 8.68 1.41 9.1477e-41
1.68 8.68 1.41 9.1477e-41
1.73 8.68 1.42 9.1477e-41
1.78 8.68 1.41 9.1477e-41
1.83 8.68 1.42 9.1477e-41
1.88 8.68 1.42 9.1477e-41
1.92 8.68 1.42 9.1477e-41
1.97 8.68 1.42 9.1477e-41
2.02 8.68 1.41 9.1477e-41
2.06 8.68 1.41 9.1477e-41
2.11 8.68 1.42 9.1477e-41
2.16 8.68 1.43 9.1477e-41
2.2 8.68 1.42 9.1477e-41
2.24 8.68 1.42 9.1477e-41
2.29 8.68 1.42 9.1477e-41
2.33 8.68 1.42 9.1477e-41
2.38 8.68 1.42 9.1477e-41
2.42 8.68 1.41 9.1477e-41
2.46 8.68 1.42 9.1477e-41
2.5 8.68 1.41 9.1477e-41
2.55 8.68 1.42 9.1477e-41
2.59 8.68 1.41 9.1477e-41
2.63 8.68 1.42 9.1477e-41
2.67 8.68 1.42 9.1477e-41
2.71 8.68 1.42 9.1477e-41
2.75 8.68 1.41 9.1477e-41
2.79 8.68 1.42 9.1477e-41
2.83 8.68 1.42 9.1477e-41
2.87 8.68 1.42 9.1477e-41
2.92 8.68 1.43 9.1477e-41
2.95 8.68 1.42 9.1477e-41
3 8.68 1.42 9.1477e-41
3.04 8.68 1.43 9.1477e-41
3.07 8.68 1.42 9.1477e-41
3.11 8.68 1.42 9.1477e-41
3.15 8.68 1.42 9.1477e-41
3.19 8.68 1.42 9.1477e-41
3.23 8.68 1.42 9.1477e-41
3.26 8.68 1.37 9.1477e-41
3.45 8.68 2.17 9.1477e-41
3.48 8.68 2.2 9.1477e-41
3.47 8.68 1.94 9.1477e-41
3.45 8.68 1.63 9.1477e-41
3.48 8.68 1.56 9.1477e-41
1.05 8.99 2.24 9.1477e-41
1.09 8.99 2.22 9.1477e-41
1.13 8.99 2.21 9.1477e-41
1.2 8.99 2.22 9.1477e-41
1.25 8.99 2.22 9.1477e-41
1.29 8.99 2.21 9.1477e-41
1.35 8.99 2.22 9.1477e-41
1.4 8.99 2.22 9.1477e-41
1.45 8.99 2.22 9.1477e-41
1.48 8.99 2.21 9.1477e-41
1.54 8.99 2.23 9.1477e-41
1.57 8.99 2.2 9.1477e-41
1.62 8.99 2.21 9.1477e-41
1.66 8.99 2.19 9.1477e-41
1.15 8.99 1.39 9.1477e-41
1.21 8.99 1.4 9.1477e-41
1.26 8.99 1.4 9.1477e-41
1.32 8.99 1.4 9.1477e-41
1.38 8.99 1.41 9.1477e-41
1.42 8.99 1.4 9.1477e-41
1.47 8.99 1.39 9.1477e-41
1.52 8.99 1.4 9.1477e-41
1.58 8.99 1.4 9.1477e-41
1.64 8.99 1.41 9.1477e-41
1.69 8.99 1.43 9.1477e-41
1.75 8.99 1.45 9.1477e-41
1.78 8.99 1.41 9.1477e-41
1.83 8.99 1.42 9.1477e-41
1.88 8.99 1.42 9.1477e-41
1.95 8.99 1.46 9.1477e-41
1.99 8.99 1.46 9.1477e-41
2.04 8.99 1.47 9.1477e-41
2.09 8.99 1.48 9.1477e-41
2.14 8.99 1.48 9.1477e-41
2.18 8.99 1.48 9.1477e-41
2.24 8.99 1.51 9.1477e-41
2.28 8.99 1.49 9.1477e-41
2.32 8.99 1.49 9.1477e-41
2.34 8.99 1.44 9.1477e-41
2.39 8.99 1.45 9.1477e-41
2.43 8.99 1.44 9.1477e-41
2.47 8.99 1.44 9.1477e-41
2.51 8.99 1.44 9.1477e-41
2.55 8.99 1.44 9.1477e-41
2.59 8.99 1.43 9.1477e-41
2.64 8.99 1.44 9.1477e-41
2.67 8.99 1.43 9.1477e-41
2.71 8.99 1.42 9.1477e-41
2.76 8.99 1.43 9.1477e-41
2.79 8.99 1.42 9.1477e-41
2.84 8.99 1.44 9.1477e-41
2.88 8.99 1.43 9.1477e-41
2.92 8.99 1.43 9.1477e-41
2.96 8.99 1.43 9.1477e-41
3 8.99 1.42 9.1477e-41
3.04 8.99 1.43 9.1477e-41
3.07 8.99 1.43 9.1477e-41
3.12 8.99 1.44 9.1477e-41
3.15 8.99 1.43 9.1477e-41
3.19 8.99 1.42 9.1477e-41
3.23 8.99 1.43 9.1477e-41
