# .PCD v.7 - Point Cloud Data file format
VERSION .7
FIELDS x y z rgb
SIZE 4 4 4 4
TYPE F F F F
WIDTH 372
HEIGHT 1
POINTS 372
DATA ascii
4.91 0 0.53 9.1477e-41
4.96 0 0.54 9.1477e-41
5 0 0.54 3.57e-43
5.16 0 0.54 3.57e-43
5.21 0 0.54 3.57e-43
5.26 0 0.54 3.57e-43
5.31 0 0.54 3.57e-43
5.37 0 0.54 3.57e-43
5.42 0 0.54 3.57e-43
5.47 0 0.54 3.57e-43
5.4 0 0.67 9.1477e-41
5.45 0 0.68 9.1477e-41
5.5 0 0.67 9.1477e-41
5.54 0 0.67 3.57e-43
5.8 0 0.67 3.57e-43
5.86 0 0.67 3.57e-43
5.91 0 0.67 3.57e-43
5.97 0 0.67 3.57e-43
5.9 0 0.51 9.1477e-41
5.95 0 0.5 9.1477e-41
4.76 0.3 0.66 9.1477e-41
4.8 0.3 0.66 9.1477e-41
4.85 0.3 0.67 9.1477e-41
4.89 0.3 0.67 3.57e-43
4.96 0.3 0.67 3.57e-43
5 0.3 0.67 3.57e-43
5.16 0.3 0.67 3.57e-43
5.21 0.3 0.67 3.57e-43
5.26 0.3 0.67 3.57e-43
5.31 0.3 0.67 3.57e-43
5.37 0.3 0.67 3.57e-43
5.42 0.3 0.67 3.57e-43
5.47 0.3 0.67 3.57e-43
5.53 0.3 0.67 3.57e-43
5.4 0.3 0.67 3.57e-43
5.45 0.3 0.67 3.57e-43
5.5 0.3 0.67 3.57e-43
5.54 0.3 0.67 3.57e-43
5.8 0.3 0.67 3.57e-43
5.86 0.3 0.67 3.57e-43
5.91 0.3 0.67 3.57e-43
5.97 0.3 0.67 3.57e-43
6.02 0.3 0.67 3.57e-43
5.9 0.3 0.67 3.57e-43
5.95 0.3 0.67 3.57e-43
6.19 0.3 0.67 3.57e-43
6.26 0.3 0.67 3.57e-43
6.11 0.3 0.64 9.1477e-41
6.17 0.3 0.63 9.1477e-41
6.22 0.3 0.63 9.1477e-41
4.65 0.6 0.83 3.57e-43
4.73 0.6 0.84 9.1477e-41
4.78 0.6 0.84 3.57e-43
4.85 0.6 0.84 3.57e-43
4.89 0.6 0.84 3.57e-43
4.96 0.6 0.84 3.57e-43
5 0.6 0.84 3.57e-43
5.16 0.6 0.84 3.57e-43
5.21 0.6 0.84 3.57e-43
5.26 0.6 0.84 3.57e-43
5.31 0.6 0.84 3.57e-43
5.37 0.6 0.84 3.57e-43
5.42 0.6 0.84 3.57e-43
5.47 0.6 0.84 3.57e-43
5.53 0.6 0.84 3.57e-43
5.4 0.6 0.84 3.57e-43
5.45 0.6 0.84 3.57e-43
5.5 0.6 0.84 3.57e-43
5.54 0.6 0.84 3.57e-43
5.8 0.6 0.84 3.57e-43
5.86 0.6 0.84 3.57e-43
5.91 0.6 0.84 3.57e-43
5.97 0.6 0.84 3.57e-43
6.02 0.6 0.84 3.57e-43
5.9 0.6 0.84 3.57e-43
5.95 0.6 0.84 3.57e-43
6.19 0.6 0.84 3.57e-43
6.26 0.6 0.84 3.57e-43
6.31 0.6 0.84 3.57e-43
6.11 0.6 0.84 3.57e-43
6.17 0.6 0.84 3.57e-43
6.22 0.6 0.63 9.1477e-41
6.19 0.6 0.82 9.1477e-41
4.78 0.9 0.94 3.57e-43
4.81 0.9 0.94 9.1477e-41
4.85 0.9 0.93 9.1477e-41
4.89 0.9 0.93 9.1477e-41
4.94 0.9 0.93 3.57e-43
5.16 0.9 0.93 3.57e-43
5.06 0.9 0.93 3.57e-43
5.31 0.9 0.93 3.57e-43
5.37 0.9 0.93 3.57e-43
5.42 0.9 0.93 3.57e-43
5.47 0.9 0.93 3.57e-43
5.53 0.9 0.93 3.57e-43
5.4 0.9 0.93 3.57e-43
5.45 0.9 0.93 3.57e-43
5.5 0.9 0.93 3.57e-43
5.54 0.9 0.93 3.57e-43
5.8 0.9 0.93 3.57e-43
5.86 0.9 0.93 3.57e-43
5.91 0.9 0.93 3.57e-43
5.97 0.9 0.93 3.57e-43
6.02 0.9 0.93 3.57e-43
5.9 0.9 0.93 3.57e-43
5.95 0.9 0.93 3.57e-43
6.19 0.9 0.93 3.57e-43
6.26 0.9 0.93 3.57e-43
5.99 0.9 0.94 9.1477e-41
6.04 0.9 0.94 9.1477e-41
6.1 0.9 0.94 3.57e-43
6.19 0.9 0.94 3.57e-43
4.63 1.2 0.55 9.1477e-41
4.63 1.2 1.02 9.1477e-41
4.68 1.2 0.94 9.1477e-41
4.73 1.2 0.94 3.57e-43
4.78 1.2 0.94 3.57e-43
4.81 1.2 0.94 3.57e-43
4.85 1.2 0.94 3.57e-43
4.89 1.2 0.94 3.57e-43
4.94 1.2 0.94 3.57e-43
5.16 1.2 0.94 3.57e-43
5.21 1.2 0.94 3.57e-43
5.06 1.2 0.94 3.57e-43
5.31 1.2 0.94 3.57e-43
5.37 1.2 0.94 3.57e-43
5.42 1.2 0.94 3.57e-43
5.47 1.2 0.94 3.57e-43
5.53 1.2 0.94 3.57e-43
5.4 1.2 0.94 3.57e-43
5.45 1.2 0.94 3.57e-43
5.5 1.2 0.94 3.57e-43
5.54 1.2 0.94 3.57e-43
5.8 1.2 0.94 3.57e-43
5.86 1.2 0.94 3.57e-43
5.91 1.2 0.94 3.57e-43
5.97 1.2 0.94 3.57e-43
6.02 1.2 0.94 3.57e-43
5.9 1.2 0.94 3.57e-43
5.95 1.2 0.94 3.57e-43
6.19 1.2 0.94 3.57e-43
6.26 1.2 0.94 3.57e-43
6.31 1.2 0.94 3.57e-43
5.99 1.2 0.94 3.57e-43
6.04 1.2 0.94 3.57e-43
6.1 1.2 0.94 3.57e-43
6.19 1.2 0.94 3.57e-43
6.16 1.2 0.94 3.57e-43
6.69 1.2 0.94 3.57e-43
6.74 1.2 0.94 3.57e-43
4.63 1.5 0.94 3.57e-43
4.72 1.5 0.94 3.57e-43
4.78 1.5 0.94 3.57e-43
4.81 1.5 0.94 3.57e-43
4.85 1.5 0.93 3.57e-43
4.96 1.5 0.51 3.57e-43
5.01 1.5 0.51 3.57e-43
5.16 1.5 0.51 3.57e-43
5.21 1.5 0.94 3.57e-43
5.06 1.5 0.99 9.1477e-41
5.2 1.5 0.99 3.57e-43
5.37 1.5 0.99 3.57e-43
5.42 1.5 0.99 3.57e-43
5.47 1.5 0.99 3.57e-43
5.53 1.5 0.99 3.57e-43
5.4 1.5 0.99 3.57e-43
5.45 1.5 0.99 3.57e-43
5.5 1.5 0.99 3.57e-43
5.54 1.5 0.99 3.57e-43
5.8 1.5 0.99 3.57e-43
5.86 1.5 0.99 3.57e-43
5.91 1.5 0.99 3.57e-43
5.97 1.5 0.99 3.57e-43
6.02 1.5 0.99 3.57e-43
5.9 1.5 0.99 3.57e-43
5.95 1.5 0.99 3.57e-43
6.19 1.5 0.99 3.57e-43
6.26 1.5 0.99 3.57e-43
6.31 1.5 0.99 3.57e-43
5.99 1.5 0.94 9.1477e-41
6.01 1.5 0.94 3.57e-43
6.1 1.5 0.94 3.57e-43
6.19 1.5 0.94 3.57e-43
6.16 1.5 0.94 3.57e-43
4.63 1.8 0.94 3.57e-43
4.72 1.8 0.94 3.57e-43
4.78 1.8 0.94 3.57e-43
4.81 1.8 0.94 3.57e-43
4.85 1.8 0.93 9.1477e-41
4.96 1.8 0.51 9.1477e-41
5.01 1.8 0.51 3.57e-43
5.16 1.8 0.51 3.57e-43
4.97 1.8 1.4 9.1477e-41
5.01 1.8 1.4 9.1477e-41
5.05 1.8 1.42 9.1477e-41
5.09 1.8 1.42 9.1477e-41
5.12 1.8 1.43 9.1477e-41
5.16 1.8 1.43 9.1477e-41
5.21 1.8 1.42 9.1477e-41
5.24 1.8 1.42 3.57e-43
5.5 1.8 1.42 3.57e-43
5.54 1.8 1.42 3.57e-43
5.8 1.8 1.42 3.57e-43
5.86 1.8 1.42 3.57e-43
5.91 1.8 1.42 3.57e-43
5.97 1.8 1.42 3.57e-43
6.02 1.8 1.42 3.57e-43
5.9 1.8 1.42 3.57e-43
5.95 1.8 1.42 3.57e-43
6.19 1.8 1.42 3.57e-43
6.26 1.8 1.42 3.57e-43
6.31 1.8 1.42 3.57e-43
5.99 1.8 1.42 3.57e-43
6.01 1.8 1.42 3.57e-43
6.1 1.8 1.42 3.57e-43
6.19 1.8 1.42 3.57e-43
6.16 1.8 1.01 9.1477e-41
6.04 1.8 1.38 9.1477e-41
4.94 2.1 0.73 3.57e-43
4.97 2.1 1.39 9.1477e-41
5.01 2.1 1.42 9.1477e-41
5.04 2.1 1.43 9.1477e-41
5.08 2.1 1.44 9.1477e-41
5.12 2.1 1.44 9.1477e-41
5.16 2.1 1.45 9.1477e-41
5.2 2.1 1.45 9.1477e-41
5.24 2.1 1.45 3.57e-43
5.5 2.1 1.45 3.57e-43
5.54 2.1 1.45 3.57e-43
5.8 2.1 1.45 3.57e-43
5.86 2.1 1.45 3.57e-43
5.91 2.1 1.45 3.57e-43
5.97 2.1 1.45 3.57e-43
6.02 2.1 1.45 3.57e-43
5.9 2.1 1.45 3.57e-43
5.95 2.1 1.45 3.57e-43
6.19 2.1 1.45 3.57e-43
6.26 2.1 1.45 3.57e-43
6.31 2.1 1.45 3.57e-43
5.99 2.1 1.45 3.57e-43
6.01 2.1 1.45 3.57e-43
6.1 2.1 1.45 3.57e-43
6.19 2.1 0.82 9.1477e-41
5.98 2.1 1.42 9.1477e-41
6.03 2.1 1.42 9.1477e-41
4.63 2.4 0.94 3.57e-43
4.63 2.4 0.96 3.57e-43
4.75 2.4 0.96 3.57e-43
4.81 2.4 0.94 9.1477e-41
4.88 2.4 0.73 9.1477e-41
4.93 2.4 0.73 9.1477e-41
4.97 2.4 0.73 3.57e-43
5.16 2.4 0.73 3.57e-43
4.94 2.4 0.73 3.57e-43
4.97 2.4 1.39 9.1477e-41
5.01 2.4 1.41 9.1477e-41
5.05 2.4 1.43 9.1477e-41
5.08 2.4 1.44 9.1477e-41
5.12 2.4 1.44 9.1477e-41
5.16 2.4 1.44 9.1477e-41
5.2 2.4 1.43 9.1477e-41
5.24 2.4 1.45 9.1477e-41
5.28 2.4 1.45 3.57e-43
5.54 2.4 1.45 3.57e-43
5.8 2.4 1.45 3.57e-43
5.86 2.4 1.45 3.57e-43
5.91 2.4 1.45 3.57e-43
5.97 2.4 1.45 3.57e-43
6.02 2.4 1.45 3.57e-43
5.9 2.4 1.45 3.57e-43
5.95 2.4 1.45 3.57e-43
6.19 2.4 1.45 3.57e-43
6.26 2.4 1.45 3.57e-43
6.31 2.4 1.45 3.57e-43
5.99 2.4 1.45 3.57e-43
6.01 2.4 1.45 3.57e-43
6.1 2.4 1.45 3.57e-43
6.19 2.4 0.82 9.1477e-41
5.98 2.4 1.43 9.1477e-41
6.04 2.4 1.4 9.1477e-41
4.63 2.7 0.96 3.57e-43
4.75 2.7 0.96 3.57e-43
4.81 2.7 0.96 3.57e-43
4.88 2.7 0.96 3.57e-43
4.93 2.7 0.96 3.57e-43
4.97 2.7 0.96 3.57e-43
5.16 2.7 0.96 3.57e-43
4.94 2.7 0.96 3.57e-43
4.97 2.7 1.39 9.1477e-41
5.01 2.7 1.39 9.1477e-41
5.05 2.7 1.41 9.1477e-41
5.09 2.7 1.42 9.1477e-41
5.13 2.7 1.42 9.1477e-41
5.17 2.7 1.41 9.1477e-41
5.2 2.7 1.41 3.57e-43
5.24 2.7 1.41 3.57e-43
5.28 2.7 1.41 3.57e-43
5.54 2.7 1.41 3.57e-43
5.8 2.7 1.41 3.57e-43
5.86 2.7 1.41 3.57e-43
5.91 2.7 1.41 3.57e-43
5.97 2.7 1.41 3.57e-43
6.02 2.7 1.41 3.57e-43
5.9 2.7 1.41 3.57e-43
5.95 2.7 1.41 3.57e-43
6.19 2.7 1.41 3.57e-43
6.26 2.7 1.41 3.57e-43
6.31 2.7 1.41 3.57e-43
5.99 2.7 1.41 3.57e-43
6.01 2.7 1.41 3.57e-43
6.1 2.7 1.41 3.57e-43
6.19 2.7 0.82 9.1477e-41
5.99 2.7 0.82 3.57e-43
6.04 2.7 1.4 9.1477e-41
4.97 3 1.39 3.57e-43
5.02 3 1.35 9.1477e-41
5.06 3 1.38 9.1477e-41
5.09 3 1.39 9.1477e-41
5.13 3 1.39 3.57e-43
5.17 3 1.41 9.1477e-41
5.21 3 1.41 3.57e-43
5.24 3 1.41 3.57e-43
5.28 3 1.41 3.57e-43
5.54 3 1.41 3.57e-43
5.8 3 1.41 3.57e-43
5.86 3 1.41 3.57e-43
5.91 3 1.41 3.57e-43
5.97 3 1.41 3.57e-43
6.02 3 1.41 3.57e-43
5.9 3 1.41 3.57e-43
5.95 3 1.41 3.57e-43
6.19 3 1.41 3.57e-43
6.26 3 1.41 3.57e-43
6.31 3 1.41 3.57e-43
5.99 3 1.41 3.57e-43
6.01 3 1.41 3.57e-43
6.1 3 0.91 9.1477e-41
5.96 3 0.91 3.57e-43
5.99 3 0.91 3.57e-43
6.04 3 1.4 9.1477e-41
4.63 3.3 0.96 3.57e-43
4.79 3.3 0.75 9.1477e-41
4.83 3.3 0.78 9.1477e-41
4.86 3.3 0.78 3.57e-43
4.93 3.3 0.78 3.57e-43
4.97 3.3 0.78 3.57e-43
5.16 3.3 0.78 3.57e-43
4.94 3.3 0.78 3.57e-43
4.97 3.3 1.39 9.1477e-41
5.1 3.3 1.39 3.57e-43
5.06 3.3 1.38 9.1477e-41
5.18 3.3 1.03 9.1477e-41
5.22 3.3 1.05 9.1477e-41
5.26 3.3 1.05 9.1477e-41
5.31 3.3 1.04 9.1477e-41
5.35 3.3 1.04 9.1477e-41
5.39 3.3 1.04 9.1477e-41
5.44 3.3 1.03 9.1477e-41
5.48 3.3 1.03 3.57e-43
5.86 3.3 1.03 3.57e-43
5.91 3.3 1.03 3.57e-43
5.97 3.3 1.03 3.57e-43
6.02 3.3 1.03 3.57e-43
5.9 3.3 1.03 3.57e-43
5.95 3.3 1.03 3.57e-43
6.19 3.3 1.03 3.57e-43
6.26 3.3 1.03 3.57e-43
6.31 3.3 1.03 3.57e-43
5.99 3.3 1.03 3.57e-43
6.01 3.3 1.03 3.57e-43
6.1 3.3 0.91 9.1477e-41
6.16 3.3 0.9 9.1477e-41
